<?xml version="1.0"?>
<opencv_storage>
<DepthMatrix type_id="opencv-matrix">
  <rows>48</rows>
  <cols>640</cols>
  <dt>w</dt>
  <data>
    0 0 0 0 0 0 0 0 0 0 0 0 0 0 0 0 0 0 0 0 0 0 0 0 0 0 3899 3949 4000 4107 4162 0 0 0 0 0 0 0 0 0 0 0 0 0 0 0 0 0 0 0 0 0 0 0 0 0 0 0 0 0 0 0 0 0 0 0 0 0 0 0 0 0 0 0 0 0 0 0 0 0 0 0 0 0 0 0 0 0 0 0 0 0 0 0 0 0 0 0 0 0 0 0 0 0 0 0 0 0 0 0 0 0 1249 1247 1247 1244 1244 1242 1239 1239 1237 1237 1237 1237 1237 1237 1237 1237 1237 1237 1237 1237 1237 1237 1234 1232 1230 1225 1215 1201 0 0 0 0 0 0 0 0 0 1137 0 1137 1137 1139 0 0 0 0 1167 1169 1169 1169 0 0 0 0 0 0 0 0 0 0 0 0 0 0 0 0 0 0 0 0 0 0 0 0 0 0 0 0 0 0 0 0 0 0 0 0 0 0 0 0 0 0 0 0 0 0 0 0 0 0 0 306 306 306 305 305 305 305 305 305 305 305 305 305 305 305 305 305 305 305 305 305 305 305 305 305 305 305 305 305 305 305 306 306 306 307 307 307 308 308 308 308 309 309 308 308 308 307 306 306 305 305 305 305 304 304 304 304 304 304 304 304 304 305 305 304 304 304 304 304 304 304 304 304 304 304 304 304 304 304 304 304 304 304 304 303 303 303 303 304 304 304 304 304 304 304 304 304 305 305 305 304 304 304 304 304 304 304 304 0 0 0 0 0 0 0 0 0 0 0 0 0 0 0 0 0 0 0 301 301 301 300 301 301 301 301 301 301 300 300 300 300 300 300 300 300 300 0 301 0 301 302 302 302 302 303 303 303 303 303 303 303 303 303 303 303 303 303 303 303 303 303 303 302 302 302 301 301 301 300 300 300 300 299 299 299 299 299 299 299 299 0 0 0 0 0 0 0 0 0 0 0 0 0 0 296 296 296 296 296 296 297 297 297 298 298 298 298 298 298 298 297 297 297 297 297 297 297 297 297 297 0 0 0 0 0 0 0 0 0 0 0 0 0 7797 7897 0 0 0 0 0 0 0 0 0 0 0 0 0 0 0 0 0 0 0 0 0 0 0 0 0 0 0 0 0 0 0 0 0 0 0 0 0 0 0 0 0 0 0 0 0 0 0 0 0 0 0 0 0 0 0 0 0 0 0 0 0 0 0 0 0 0 0 0 0 0 0 0 0 0 0 0 0 0 0 0 0 0 0 0 0 0 0 0 0 0 0 0 0 0 0 0 0 0 0 0 0 0 0 0 0 0 0 0 0 0 0 0 0 0 0 0 0 0 0 0 0 0 0 0 0 0 0 0 0 0 0 0 0 0 0 0 0 0 0 0 0 0 0 0 0 0 298 0 0 297 296 296 296 296 296 295 295 295 295 295 294 294 294 294 294 294 294 294 294 294 294 294 294 293 293 293 293 293 293 293 292 292
    0 0 0 0 0 0 0 0 0 0 0 0 0 0 0 0 0 0 0 0 0 0 0 0 0 4000 4053 4107 4134 4219 4278 0 0 0 0 0 0 0 0 0 0 0 0 0 0 0 0 0 0 0 0 0 0 0 0 0 0 0 0 0 0 0 0 0 0 0 0 0 0 0 0 0 0 0 0 0 0 0 0 0 0 0 0 0 0 0 0 0 0 0 0 0 0 0 0 0 0 0 0 0 0 0 0 0 0 0 0 0 0 0 0 0 1249 1247 1247 1244 1244 1242 1242 1239 1237 1237 1237 1237 1237 1234 1234 1234 1234 1234 1237 1237 1234 1234 1234 1232 1230 1227 1217 0 0 0 1156 0 1137 1134 0 0 1134 1132 0 1134 1134 1137 0 0 0 1156 1162 1164 1162 0 0 0 0 0 0 0 0 0 0 0 0 0 0 0 0 0 0 0 0 0 0 0 0 0 0 0 0 0 0 0 0 0 0 0 0 0 0 0 0 0 0 0 0 0 0 0 0 0 0 0 0 306 305 305 305 305 305 304 304 304 304 305 305 305 305 305 305 304 304 304 304 304 304 304 304 304 304 304 305 305 305 305 306 306 306 306 307 307 308 308 308 308 308 308 308 308 307 307 306 306 305 305 304 304 304 304 304 304 304 304 304 304 304 304 304 304 304 304 304 304 304 304 304 304 304 304 304 303 303 303 303 303 303 303 303 303 303 303 303 303 303 303 303 303 303 304 304 304 304 304 304 304 304 304 303 303 303 303 303 0 0 0 0 0 0 0 0 0 0 0 0 0 0 0 0 0 0 0 300 300 300 300 300 300 300 300 300 300 300 300 300 300 300 299 299 299 299 0 0 0 301 301 301 302 302 303 303 303 303 303 303 303 303 303 303 304 304 304 304 304 303 303 303 303 302 302 302 301 301 301 301 300 300 300 300 300 300 300 299 299 300 0 0 0 0 0 0 0 0 0 0 0 0 0 0 296 296 296 296 296 296 297 297 297 297 298 298 298 298 297 297 297 297 297 297 297 297 297 297 297 0 0 0 0 0 0 0 0 0 0 0 0 0 0 0 0 0 0 0 0 0 0 0 0 0 0 0 0 0 0 0 0 0 0 0 0 0 0 0 0 0 0 0 0 0 0 0 0 0 0 0 0 0 0 0 0 0 0 0 0 0 0 0 0 0 0 0 0 0 0 0 0 0 0 0 0 0 0 0 0 0 0 0 0 0 0 0 0 0 0 0 0 0 0 0 0 0 0 0 0 0 0 0 0 0 0 0 0 0 0 0 0 0 0 0 0 0 0 0 0 0 0 0 0 0 0 0 0 0 0 0 0 0 0 0 0 0 0 0 0 0 0 0 0 0 0 0 0 0 0 0 0 0 0 0 0 0 0 0 0 0 0 0 296 296 296 296 295 295 295 295 295 294 294 294 294 294 294 294 294 294 294 294 294 294 293 293 293 293 293 293 292 292 292 292 292 292 292
    0 0 0 0 0 0 0 0 0 0 0 0 0 0 0 0 0 0 0 0 0 4000 4053 0 4134 4162 4219 4248 4278 4278 4308 4308 0 0 0 0 0 0 0 0 0 0 0 0 0 0 0 0 0 0 0 0 0 0 0 0 0 0 0 0 0 0 0 0 0 0 0 0 0 0 0 0 0 0 0 0 0 0 0 0 0 0 0 0 0 0 0 0 0 0 0 0 0 0 0 0 0 0 0 0 0 0 0 0 0 0 0 0 0 0 0 0 0 1247 1247 1244 1242 1242 1239 1237 1237 1234 1234 1234 1234 1234 1234 1234 1234 1234 1232 1232 1234 1232 1232 1230 1230 1227 1217 0 0 1171 1158 1143 1137 1134 1132 1132 1130 1130 1130 1130 1132 1134 1141 0 1149 1154 1160 1160 1162 1162 1162 1164 1160 0 0 0 0 0 0 0 0 0 0 0 0 0 0 0 0 0 0 0 0 0 0 0 0 0 0 0 0 0 0 0 0 0 0 0 0 0 0 0 0 0 0 0 0 0 0 0 0 305 304 304 304 304 304 304 304 304 304 304 304 304 304 304 304 304 304 304 304 304 304 304 304 304 304 304 304 304 305 305 305 306 306 306 307 307 307 308 308 308 308 308 308 308 307 307 306 306 305 305 304 304 304 304 304 303 304 303 303 304 304 304 304 304 304 304 304 304 304 304 303 303 303 303 303 303 303 303 303 303 303 303 302 302 302 302 303 303 303 303 303 303 303 303 303 303 303 304 303 303 303 303 303 303 303 303 302 0 0 0 0 0 0 0 0 0 0 0 0 0 0 0 0 0 0 0 299 299 299 299 299 299 299 299 299 299 299 299 299 299 299 299 299 299 299 0 0 0 300 300 301 301 302 302 303 303 303 303 303 303 304 304 304 304 304 304 304 304 304 303 303 303 303 303 302 302 302 302 301 301 301 301 300 300 300 300 300 300 300 0 0 0 0 0 0 0 0 0 0 0 0 0 0 296 296 296 296 296 296 297 297 297 297 297 298 298 297 297 297 297 297 296 296 296 296 296 296 296 0 0 0 0 0 0 0 0 0 0 7700 8000 8324 8555 0 0 0 0 0 0 0 0 0 0 0 0 0 0 0 0 0 0 0 0 0 0 0 0 0 0 0 0 0 0 0 0 0 0 0 0 0 0 0 0 0 0 0 0 0 0 0 0 0 0 0 0 0 0 0 0 0 0 0 0 0 0 0 0 0 0 0 0 0 0 0 0 0 0 0 0 0 0 0 0 0 0 0 0 0 0 0 0 0 0 0 0 0 0 0 0 0 0 0 0 0 0 0 0 0 0 0 0 0 0 0 0 0 0 0 0 0 0 0 0 0 0 0 0 0 0 0 0 0 0 0 0 0 0 0 0 0 0 0 0 0 0 0 0 0 0 0 0 0 296 295 295 295 295 294 294 294 294 294 293 293 293 293 293 293 293 293 293 293 293 292 292 292 292 292 291 291 291 291 291 291 291 291 291
    0 0 0 0 0 0 0 0 0 0 0 0 0 0 0 0 0 0 0 0 0 0 0 0 4432 0 0 4432 4432 4432 4400 4400 0 0 0 0 0 0 0 0 0 0 0 0 0 0 0 0 0 0 0 0 0 0 0 0 0 0 0 0 0 0 0 0 0 0 0 0 0 0 0 0 0 0 0 0 0 0 0 0 0 0 0 0 0 0 0 0 0 0 0 0 0 0 0 0 0 0 0 0 0 0 0 0 0 0 0 0 0 0 0 0 1249 1247 1244 1244 1242 1239 1239 1237 1237 1234 1234 1234 1232 1232 1232 1232 1232 1232 1230 1230 1230 1230 1227 1227 1227 1225 1217 1203 0 1171 1158 1143 1137 1134 1130 1130 1130 1130 1130 1130 1132 1134 1139 1143 1147 1154 1158 1162 1160 1162 1162 1164 1160 0 0 0 0 0 0 0 0 0 0 0 0 0 0 0 0 0 0 0 0 0 0 0 0 0 0 0 0 0 0 0 0 0 0 0 0 0 0 0 0 0 0 0 0 0 0 0 0 304 304 304 304 304 304 304 304 304 304 304 304 304 304 304 304 304 304 304 304 304 304 304 304 304 304 304 304 304 304 305 305 305 306 306 306 307 307 308 308 308 308 308 308 307 307 307 306 305 305 304 304 304 304 0 303 303 303 303 303 303 303 303 303 303 303 303 303 303 303 303 303 303 303 303 303 303 302 302 302 302 302 302 302 302 302 302 302 302 302 302 302 302 302 302 303 303 303 303 302 302 302 302 302 302 302 302 301 0 0 0 0 0 0 0 0 0 0 0 0 0 0 0 0 0 0 0 299 299 299 299 299 298 298 298 298 299 298 298 298 298 298 298 298 298 298 299 0 0 300 300 300 301 301 302 302 302 303 303 303 303 303 304 304 304 304 304 304 304 304 304 303 303 303 303 303 303 302 302 302 302 302 302 301 301 301 301 301 301 301 0 0 0 0 0 0 0 0 0 0 0 0 0 0 296 296 296 296 296 296 297 297 297 297 297 297 297 297 297 297 296 296 296 296 296 296 296 296 296 0 0 0 0 0 0 0 0 0 0 0 7897 0 0 8676 8800 0 0 0 0 0 0 0 0 0 0 0 0 0 0 0 0 0 0 0 0 0 0 0 0 0 0 0 0 0 0 0 0 0 0 0 0 0 0 0 0 0 0 0 0 0 0 0 0 0 0 0 0 0 0 0 0 0 0 0 0 0 0 0 0 0 0 0 0 0 0 0 0 0 0 0 0 0 0 0 0 0 0 0 0 0 0 0 0 0 0 0 0 0 0 0 0 0 0 0 0 0 0 0 0 0 0 0 0 0 0 0 0 0 0 0 0 0 0 0 0 0 0 0 0 0 0 0 0 0 0 0 0 0 0 0 0 0 0 0 0 0 0 0 0 0 0 295 295 295 0 295 295 294 294 294 294 293 293 293 293 293 292 292 292 292 292 292 291 291 291 291 291 290 290 290 290 290 290 290 290 290 290
    0 0 0 0 0 0 0 0 0 0 0 0 0 0 0 0 0 0 0 0 0 0 4597 4632 4597 0 0 4563 4529 4529 4496 4464 0 0 0 0 0 0 0 0 0 0 0 0 0 0 0 0 0 0 0 0 0 0 0 0 0 0 0 0 0 0 0 0 0 0 0 0 0 0 0 0 0 0 0 0 0 0 0 0 0 0 0 0 0 0 0 0 0 0 0 0 0 0 0 0 0 0 0 0 0 0 0 0 0 0 0 0 0 0 0 0 0 1247 1247 1244 1242 1242 1237 1237 1234 1234 1232 1232 1232 1232 1230 1230 1230 1230 1227 1227 1227 0 0 0 0 0 0 1201 0 0 0 0 1137 1134 0 0 0 0 0 0 1132 1132 1139 0 1147 1151 1156 1160 1160 1160 1162 1160 1160 0 0 0 0 0 0 0 0 0 0 0 0 0 0 0 0 0 0 0 0 0 0 0 0 0 0 0 0 0 0 0 0 0 0 0 0 0 0 0 0 0 0 0 0 0 0 0 0 304 304 303 304 303 303 303 303 303 303 304 304 304 304 304 304 304 304 304 304 304 304 304 303 304 304 304 304 304 304 304 304 305 306 306 306 307 307 307 308 308 308 308 307 307 307 306 306 305 304 0 304 304 0 303 303 303 303 303 303 303 303 303 303 303 303 303 303 303 303 303 303 303 303 302 302 302 302 302 302 302 302 302 301 301 301 302 302 302 302 302 302 302 302 302 302 302 302 302 301 301 301 301 301 301 301 301 301 0 0 0 0 0 0 0 0 0 0 0 0 0 0 0 0 0 0 0 298 298 298 298 298 298 298 298 298 298 298 298 298 298 298 298 298 298 298 298 299 299 299 299 300 300 301 301 302 302 302 303 303 303 303 303 304 304 304 304 304 304 304 304 304 304 303 303 303 303 303 303 303 302 302 302 302 302 301 301 301 301 301 0 0 0 0 0 0 0 0 0 0 0 0 0 295 295 296 296 296 296 296 297 297 297 297 297 297 297 297 296 296 296 296 296 296 296 296 296 296 296 296 296 296 296 0 0 0 0 0 7422 7797 0 8105 0 8676 0 0 0 9333 0 0 0 0 0 0 0 0 0 0 0 0 0 0 0 0 0 0 0 0 0 0 0 0 0 0 0 0 0 0 0 0 0 0 0 0 0 0 0 0 0 0 0 0 0 0 0 0 0 0 0 0 0 0 0 0 0 0 0 0 0 0 0 0 0 0 0 0 0 0 0 0 0 0 0 0 0 0 0 0 0 0 0 0 0 0 0 0 0 0 0 0 0 0 0 0 0 0 0 0 0 0 0 0 0 0 0 0 0 0 0 0 0 0 0 0 0 0 0 0 0 0 0 0 0 0 0 0 0 0 0 0 0 0 0 0 0 0 0 0 0 0 0 0 0 0 0 0 293 293 292 292 292 292 291 291 291 291 291 290 290 290 290 290 290 290 290 290 290 289 289 289 289 289 289 289 289 289 289
    0 0 0 0 0 0 0 0 0 0 0 0 0 0 0 0 0 0 0 0 0 0 0 4667 0 4597 4597 4597 4563 4563 4529 4496 0 0 0 0 0 0 0 0 0 0 0 0 0 0 0 0 0 0 0 0 0 0 0 0 0 0 0 0 0 0 0 0 0 0 0 0 0 0 0 0 0 0 0 0 0 0 0 0 0 0 0 0 0 0 0 0 0 0 0 0 0 0 0 0 0 0 0 0 0 0 0 0 0 0 0 0 0 0 0 0 0 1252 1249 1247 1244 1242 1237 1234 1234 1232 1230 1230 1230 1230 1227 1227 1225 1225 1225 1222 1222 1220 0 0 0 0 1203 0 0 0 0 0 1139 0 0 0 0 0 0 0 1130 1137 1139 0 1145 1149 1154 1158 1158 1158 1160 1160 1158 0 0 0 0 0 0 0 0 0 0 0 0 0 0 0 0 0 0 0 0 0 0 0 0 0 0 0 0 0 0 0 0 0 0 0 0 0 0 0 0 0 0 0 0 0 0 0 0 0 0 303 303 303 303 303 303 303 303 303 303 303 304 304 304 303 303 303 303 303 303 303 303 303 303 303 303 303 304 304 304 305 305 306 306 306 307 307 308 308 307 307 307 307 0 306 306 305 304 0 304 0 0 303 303 303 303 303 303 303 303 303 303 303 303 303 303 303 303 303 302 302 302 302 302 302 302 301 301 301 301 301 301 301 301 301 301 301 301 301 301 301 301 301 301 301 301 0 0 0 0 0 301 301 301 300 300 0 301 301 0 0 0 0 0 0 0 0 0 0 0 0 0 0 0 0 298 298 298 298 298 298 298 297 297 297 297 297 297 297 297 297 297 297 297 298 298 298 299 299 299 300 300 301 301 302 302 302 302 303 303 303 303 304 304 304 304 304 304 304 304 304 304 304 304 304 303 303 303 303 303 303 302 302 302 302 301 301 301 0 0 0 0 0 0 0 0 0 0 0 295 295 295 295 296 296 296 296 296 297 297 297 297 297 297 297 296 296 296 296 295 295 295 296 296 296 296 296 296 296 296 296 0 0 0 0 0 7605 7897 8105 8213 8324 8676 8800 8927 8927 9194 0 0 0 0 0 0 0 0 0 0 0 0 0 0 0 0 0 0 0 0 0 0 0 0 0 0 0 0 0 0 0 0 0 0 0 0 0 0 0 0 0 0 0 0 0 0 0 0 0 0 0 0 0 0 0 0 0 0 0 0 0 0 0 0 0 0 0 0 0 0 0 0 0 0 0 0 0 0 0 0 0 0 0 0 0 0 0 0 0 0 0 0 0 0 0 0 0 0 0 0 0 0 0 0 0 0 0 0 0 0 0 0 0 0 0 0 0 0 0 0 0 0 0 0 0 0 0 0 0 0 0 0 0 0 0 0 0 0 0 0 0 0 0 290 0 0 0 0 0 0 0 290 290 290 290 289 289 289 289 289 289 289 289 289 289 289 289 289 289 289 289 289 289 289 289 289 289 289 289
    0 0 0 0 0 0 0 0 0 0 0 0 0 0 0 0 0 0 0 0 0 0 0 0 4702 4667 4667 4667 0 0 0 0 0 0 0 0 0 0 0 0 0 0 0 0 0 0 0 0 0 0 0 0 0 0 0 0 0 0 0 0 0 0 0 0 0 0 0 0 0 0 0 0 0 0 0 0 0 0 0 0 0 0 0 0 0 0 0 0 0 0 0 0 0 0 0 0 0 0 0 0 0 0 0 0 0 0 0 0 0 0 0 0 1262 1257 1255 1249 1247 1242 1239 1234 1232 1230 1227 1227 1227 1225 1225 1225 1222 1222 1220 1220 1220 1215 0 0 0 1203 1196 0 0 0 0 1143 1139 1137 1134 1132 1132 1130 1130 1132 1132 1137 1139 1143 1147 1149 1154 1158 1158 1158 1160 1160 1158 0 0 0 0 0 0 0 0 0 0 0 0 0 0 0 0 0 0 0 0 0 0 0 0 0 0 0 0 0 0 0 0 0 0 0 0 0 0 0 0 0 0 0 0 0 0 0 0 0 0 303 303 303 302 303 303 303 303 303 303 303 303 303 303 303 303 303 303 303 303 303 303 303 303 303 303 303 303 303 304 304 305 305 306 306 307 307 307 307 307 307 307 306 0 306 306 305 0 0 0 0 0 0 302 302 302 302 302 302 302 302 303 303 303 303 303 302 302 302 302 302 302 302 301 301 301 301 301 300 300 300 300 300 300 300 300 301 301 301 301 301 300 300 300 300 300 0 0 0 0 0 300 300 300 300 300 0 300 300 0 0 0 0 0 0 0 0 0 0 0 0 0 0 0 0 298 298 298 298 297 297 297 297 297 297 297 297 297 297 297 297 297 297 297 298 298 298 298 299 299 300 300 300 301 301 302 302 302 302 303 303 303 304 304 304 304 304 304 304 304 304 304 304 304 304 304 303 303 303 303 303 302 302 302 302 301 301 301 301 0 0 0 0 0 0 0 0 0 0 0 0 295 295 296 296 296 296 297 297 297 297 297 297 297 296 296 296 295 295 295 295 295 295 295 295 296 296 296 296 296 296 296 0 0 0 0 7422 7605 7797 8000 8105 8555 8676 8800 8800 0 0 0 0 0 0 0 0 0 0 0 0 0 0 0 0 0 0 0 0 0 0 0 0 0 0 0 0 0 0 0 0 0 0 0 0 0 0 0 0 0 0 0 0 0 0 0 0 0 0 0 0 0 0 0 0 0 0 0 0 0 0 0 0 0 0 0 0 0 0 0 0 0 0 0 0 0 0 0 0 0 0 0 0 0 0 0 0 0 0 0 0 0 0 0 0 0 0 0 0 0 0 0 0 0 0 0 0 0 0 0 0 0 0 0 0 0 0 0 0 0 0 0 0 0 0 0 0 0 0 0 0 287 287 0 0 0 0 0 0 287 0 287 288 288 0 0 0 0 0 0 0 0 0 288 0 0 0 288 288 287 0 288 288 288 288 288 288 288 288 288 288 288 288 288 288 288 288 288 289
    0 0 0 0 0 0 0 0 0 0 0 0 0 0 0 0 0 0 0 0 0 0 0 0 0 0 0 4775 0 0 0 0 0 0 0 0 0 0 0 0 0 0 0 0 0 0 0 0 0 0 0 0 0 0 0 0 0 0 0 0 0 0 0 0 0 0 0 0 0 0 0 0 0 0 0 0 0 0 0 0 0 0 0 0 0 0 0 0 0 0 0 0 0 0 0 0 0 0 0 0 0 0 0 0 0 0 0 0 0 0 0 0 1273 1270 1265 1257 1249 1244 1239 1234 1232 1230 1227 1225 1225 1225 1222 1222 1220 1220 1217 1215 1213 1210 1208 0 1201 1198 1194 0 0 0 0 1145 1139 1139 1137 1134 1134 1132 1132 1132 1134 1137 1139 1143 1147 1149 1154 1158 1160 1160 1164 1164 0 0 0 0 0 0 0 0 0 0 0 0 0 0 0 0 0 0 0 0 0 0 0 0 0 0 0 0 0 0 0 0 0 0 0 0 0 0 0 0 0 0 0 0 0 0 0 0 0 0 0 0 302 302 302 302 302 302 303 303 303 303 303 303 303 303 303 303 303 302 302 302 302 302 302 302 303 303 303 303 303 304 304 305 306 306 306 307 307 307 307 306 306 306 306 306 305 0 0 0 0 0 0 0 302 302 302 302 302 302 302 302 302 302 302 302 302 302 302 302 302 302 301 301 301 301 300 300 300 300 300 300 300 300 300 300 300 300 300 300 300 300 300 300 300 300 300 299 0 0 299 299 300 300 300 300 300 300 300 300 300 300 0 0 0 0 0 0 0 0 0 0 0 0 0 0 298 298 297 297 297 297 297 297 297 297 297 297 297 297 297 297 297 297 297 297 298 298 298 298 299 299 300 300 300 301 301 302 302 302 302 303 303 303 303 303 304 304 304 304 304 304 304 304 304 303 303 303 303 303 303 303 302 302 302 302 301 301 301 301 0 0 0 0 0 0 0 0 0 0 0 0 295 295 295 296 296 296 296 297 297 297 297 297 296 296 296 295 295 295 295 295 295 295 295 295 295 295 295 296 296 296 296 0 0 0 0 7797 7897 8000 8105 8105 8555 8555 8555 8555 0 0 0 0 0 0 0 0 0 0 0 0 0 0 0 0 0 0 0 0 0 0 0 0 0 0 0 0 0 0 0 0 0 0 0 0 0 0 0 0 0 0 0 0 0 0 0 0 0 0 0 0 0 0 0 0 0 0 0 0 0 0 0 0 0 0 0 0 0 0 0 0 0 0 0 0 0 0 0 0 0 0 0 0 0 0 0 0 0 0 0 0 0 0 0 0 0 0 0 0 0 0 0 0 0 0 0 0 0 0 0 0 0 0 0 0 0 289 289 0 290 0 0 0 0 0 0 0 0 0 0 0 0 285 285 0 0 0 0 0 0 286 0 0 0 0 0 0 0 0 0 0 0 0 0 0 0 0 0 287 286 287 0 287 287 287 287 287 288 288 288 288 288 288 288 288 288 288 288 288
    0 0 0 0 0 0 0 0 0 0 0 0 0 0 0 0 0 0 0 0 0 0 0 0 0 0 0 0 4928 0 0 0 0 0 0 0 0 0 0 0 0 0 0 0 0 0 0 0 0 0 0 0 0 0 0 0 0 0 0 0 0 0 0 0 0 0 0 0 0 0 0 0 0 0 0 0 0 0 0 0 0 0 0 0 0 0 0 0 0 0 0 0 0 0 0 0 0 0 0 0 0 0 0 0 0 0 0 0 0 0 0 1294 1286 1278 1273 1262 1255 1249 1244 1237 1232 1230 1227 1225 1225 1222 1222 1220 1220 1217 1215 1210 1208 1203 1201 1198 0 0 0 0 0 0 0 0 1139 1139 1137 1137 0 1134 0 1134 1137 1139 1143 1145 1147 1149 1154 1158 1160 1162 1164 1167 0 0 0 0 0 0 0 0 0 0 0 0 0 0 0 0 0 0 0 0 0 0 0 0 0 0 0 0 0 0 0 0 0 0 0 0 0 0 0 0 0 0 0 0 0 0 0 0 0 0 0 302 302 302 302 302 302 302 302 303 303 303 303 303 302 302 302 302 302 302 302 302 302 302 302 302 302 302 303 303 303 304 304 305 305 306 306 306 307 307 306 306 306 306 305 305 305 0 0 0 0 0 0 0 301 301 301 301 301 302 301 302 302 302 302 302 302 302 302 301 301 301 301 301 301 300 300 300 300 299 299 299 299 299 299 299 299 300 300 300 299 299 299 299 299 299 299 298 298 298 298 299 299 299 299 299 299 299 299 299 299 299 0 0 0 0 0 0 0 0 299 299 0 299 0 298 298 297 297 297 297 297 297 297 297 297 296 296 296 296 296 297 297 297 297 297 298 298 298 298 299 299 299 300 300 300 301 301 302 302 302 302 303 303 303 303 303 303 303 303 304 304 303 303 304 303 303 303 303 303 303 302 302 302 302 301 301 301 300 300 0 0 0 0 0 0 0 0 0 0 0 294 295 295 295 295 295 296 296 296 297 297 297 296 296 296 295 295 295 294 294 294 294 295 295 295 295 295 295 296 296 296 296 0 0 0 0 7797 7797 7897 7897 8105 8324 8438 8438 8438 0 0 0 0 0 0 0 0 0 0 0 0 0 0 0 0 0 0 0 0 0 0 0 0 0 0 0 0 0 0 0 0 0 0 0 0 0 0 0 0 0 0 0 0 0 0 0 0 0 0 0 0 0 0 0 0 0 0 0 0 0 0 0 0 0 0 0 0 0 0 0 0 0 0 0 0 0 0 0 0 0 0 0 0 0 0 0 0 0 0 0 0 0 0 0 0 0 0 0 0 0 0 0 0 0 0 0 0 0 0 0 0 0 0 0 0 0 288 288 0 0 0 0 0 0 0 0 0 0 0 286 285 285 285 285 285 285 285 285 285 286 286 0 0 0 0 0 0 0 285 0 285 0 0 0 286 286 285 285 285 285 286 286 286 286 286 287 287 287 287 288 288 288 288 288 288 288 288 288 288
    0 0 0 0 0 0 0 0 0 0 0 0 0 0 0 0 0 0 0 0 0 0 0 0 0 0 0 0 0 0 0 0 0 0 0 0 0 0 0 0 0 0 0 0 0 0 0 0 0 0 0 0 0 0 0 0 0 0 0 0 0 0 0 0 0 0 0 0 0 0 0 0 0 0 0 0 0 0 0 0 0 0 0 0 0 0 0 0 0 0 0 0 0 0 0 0 0 0 0 0 0 0 0 0 0 0 0 0 0 0 0 0 1291 1286 1278 1270 1260 1252 1247 1239 1234 1227 1225 1222 1220 1217 1217 0 1215 0 1210 1205 1203 1201 0 0 0 0 0 0 0 0 0 0 1139 1139 1137 1137 0 0 1137 1134 1137 1139 1143 1145 1147 1149 1154 1158 0 0 0 0 0 0 0 0 0 0 0 0 0 0 0 0 0 0 0 0 0 0 0 0 0 0 0 0 0 0 0 0 0 0 0 0 0 0 0 0 0 0 0 0 0 0 0 0 0 0 0 0 0 0 302 302 302 302 302 302 302 302 302 302 302 302 302 302 302 302 302 302 302 302 302 302 302 302 302 302 302 302 302 303 303 304 304 305 305 306 306 306 306 306 306 305 305 305 305 304 0 0 0 0 0 0 0 0 301 301 301 301 301 301 301 301 301 301 301 301 301 301 301 301 301 301 301 300 300 300 300 300 299 299 299 299 299 299 299 299 299 299 299 299 299 299 299 299 299 298 298 298 297 298 298 298 298 299 299 299 299 299 299 299 299 299 299 299 299 299 299 299 299 299 299 299 0 298 0 298 297 297 297 297 297 297 296 296 296 296 296 296 296 296 296 296 296 296 297 297 298 298 298 298 299 299 299 299 300 300 300 301 301 302 302 302 302 303 303 303 303 303 303 303 303 303 303 303 303 303 303 303 303 303 303 302 302 302 301 301 300 300 300 300 0 0 0 0 0 0 0 0 0 0 0 294 294 294 294 295 295 296 296 296 296 296 296 296 296 295 295 295 294 294 294 294 294 294 295 295 295 295 295 296 296 295 296 0 0 0 0 0 7512 7605 7700 8000 8324 8324 8324 8324 0 0 0 0 0 0 0 0 0 0 0 0 0 0 0 0 0 0 0 0 0 0 0 0 0 0 0 0 0 0 0 0 0 0 0 0 0 0 0 0 0 0 0 0 0 0 0 0 0 0 0 0 0 0 0 0 0 0 0 0 0 0 0 0 0 0 0 0 0 0 0 0 0 0 0 0 0 0 0 0 0 0 0 0 0 0 0 0 0 0 0 0 0 0 0 0 0 0 0 0 0 0 0 0 0 0 0 0 0 0 0 0 0 0 0 0 287 0 287 288 0 0 0 0 0 0 0 0 0 0 285 285 285 285 285 285 285 285 285 285 285 285 285 285 285 285 285 285 285 285 285 285 285 285 285 285 285 285 285 285 285 285 285 285 285 285 286 286 287 287 287 288 288 288 288 288 288 288 288 288
    0 0 0 0 0 0 0 0 0 0 0 0 0 0 0 0 0 0 0 0 0 0 0 0 0 0 0 0 0 0 0 0 0 0 0 0 0 0 0 0 0 0 0 0 0 0 0 0 0 0 0 0 0 0 0 0 0 0 0 0 0 0 0 0 0 0 0 0 0 0 0 0 0 0 0 0 0 0 0 0 0 0 0 0 0 0 0 0 0 0 0 0 0 0 0 0 0 0 0 0 0 0 0 0 0 0 0 0 0 0 0 1305 1297 0 1283 1273 1262 1255 1249 1239 1234 1227 1222 1220 1217 0 0 0 0 0 0 0 0 0 0 0 0 0 0 0 0 0 0 0 0 0 0 0 0 0 0 1137 0 1139 1143 1145 1147 1149 1151 1158 0 0 0 0 0 0 0 0 0 0 0 0 0 0 0 0 0 0 0 0 0 0 0 0 0 0 0 0 0 0 0 0 0 0 0 0 0 0 0 0 0 0 0 0 0 0 0 0 0 0 0 0 0 0 302 302 302 302 302 302 302 302 302 302 302 302 302 302 302 302 301 301 301 301 301 301 301 301 301 301 302 302 302 303 303 303 304 304 305 305 306 306 306 306 306 305 305 305 304 304 0 0 0 0 0 0 0 0 300 300 300 300 300 300 300 301 301 301 301 301 301 301 301 300 300 300 300 300 300 299 299 299 299 299 299 299 299 298 298 299 299 299 299 299 299 298 298 298 298 298 298 297 297 297 298 298 298 298 298 298 299 299 299 299 299 299 299 299 299 299 299 299 299 299 299 299 298 298 298 298 297 297 297 297 297 296 296 296 296 296 296 296 296 296 296 296 296 296 296 297 297 298 298 298 298 299 299 299 300 300 300 301 301 301 301 302 302 302 302 303 303 303 303 303 303 303 303 303 303 303 303 302 302 302 302 302 301 301 301 300 300 300 299 299 0 0 0 0 0 0 0 0 0 293 293 293 294 294 294 294 295 295 296 296 296 296 296 296 295 295 295 294 294 294 294 294 294 294 295 295 295 295 295 295 296 295 296 0 0 0 0 0 0 0 7333 7512 7897 7797 7897 0 0 0 0 0 0 0 0 0 0 0 0 0 0 0 0 0 0 0 0 0 0 0 0 0 0 0 0 0 0 0 0 0 0 0 0 0 0 0 0 0 0 0 0 0 0 0 0 0 0 0 0 0 0 0 0 0 0 0 0 0 0 0 0 0 0 0 0 0 0 0 0 0 0 0 0 0 0 0 0 0 0 0 0 0 0 0 0 0 0 0 0 0 0 0 0 0 0 0 0 0 0 0 0 0 0 0 0 0 0 0 0 285 285 285 286 286 286 286 287 287 287 287 287 0 0 0 0 0 0 0 285 285 285 285 285 285 285 285 285 285 285 285 285 285 285 285 285 285 284 284 284 284 284 284 284 284 284 284 284 284 284 284 284 284 284 285 285 286 286 286 287 287 288 288 0 288 288 289 289 289
    0 0 0 0 0 0 0 0 0 0 0 0 0 0 0 0 0 0 0 0 0 0 0 0 0 0 0 0 0 0 0 0 0 0 0 0 0 0 0 0 0 0 0 0 0 0 0 0 0 0 0 0 0 0 0 0 0 0 0 0 0 0 0 0 0 0 0 0 0 0 0 0 0 0 0 0 0 0 0 0 0 0 0 0 0 0 0 0 0 0 0 0 0 0 0 0 0 0 0 0 0 0 0 0 0 0 0 0 0 0 1316 1311 1305 1297 1289 1278 1267 1257 1249 1244 1237 1230 1225 1220 0 0 0 0 0 0 0 0 0 0 0 0 0 0 0 0 0 0 0 0 0 0 0 0 0 0 0 0 0 0 0 1147 0 0 0 0 0 0 0 0 0 0 0 0 0 0 0 0 0 0 0 0 0 0 0 0 0 0 0 0 0 0 0 0 0 0 0 0 0 0 0 0 0 0 0 0 0 0 0 0 0 0 0 0 0 0 0 0 0 0 0 302 302 302 302 302 302 302 302 302 302 302 302 301 301 301 301 301 301 301 301 301 301 301 301 301 301 302 302 302 303 303 304 304 305 305 305 305 306 306 305 305 304 304 304 304 303 0 0 0 0 0 0 0 300 300 300 300 300 300 300 300 300 300 300 300 300 300 300 300 300 300 300 299 299 299 299 299 299 299 298 298 298 298 298 298 298 298 298 298 298 298 298 298 298 297 297 297 297 297 297 298 298 298 298 298 298 299 298 299 299 299 299 299 299 299 299 299 299 299 299 298 298 298 298 297 297 297 297 296 296 296 296 296 296 296 296 296 295 295 295 295 296 296 296 297 297 297 298 298 298 299 299 299 299 300 300 300 300 301 301 301 302 302 302 302 302 303 303 303 303 303 303 303 303 303 302 302 302 302 302 301 301 300 300 299 299 299 299 299 0 0 0 0 0 0 0 0 293 293 293 293 293 294 294 294 295 295 296 296 296 296 296 296 295 295 294 294 294 294 294 293 294 294 294 295 295 295 295 295 295 295 295 0 0 0 0 6417 6553 6769 6844 7080 7333 7333 7333 0 0 0 0 0 0 0 0 0 0 0 0 0 0 0 0 0 0 0 0 0 0 0 0 0 0 0 0 0 0 0 0 0 0 0 0 0 0 0 0 0 0 0 0 0 0 0 0 0 0 0 0 0 0 0 0 0 0 0 0 0 0 0 0 0 0 0 0 0 0 0 0 0 0 0 0 0 0 0 0 0 0 0 0 0 0 0 0 0 0 0 0 0 0 0 0 0 0 0 0 0 0 0 0 0 0 0 0 0 0 285 285 285 285 285 285 286 286 286 286 286 286 287 286 286 0 0 0 0 285 285 285 285 285 285 284 284 284 284 284 285 285 285 285 285 285 285 284 284 284 284 284 284 284 284 284 284 284 284 283 284 284 284 284 284 284 284 285 0 285 286 287 288 288 289 289 289 289 289 289 289
    0 0 0 0 0 0 0 0 0 0 0 0 0 0 0 0 0 0 0 0 0 0 0 0 0 0 0 0 0 0 0 0 0 0 0 0 0 0 0 0 0 0 0 0 0 0 0 0 0 0 0 0 0 0 0 0 0 0 0 0 0 0 0 0 0 0 0 0 0 0 0 0 0 0 0 0 0 0 0 0 0 0 0 0 0 0 0 0 0 0 0 0 0 0 0 0 0 0 0 0 0 0 0 0 0 0 0 0 0 0 1322 1316 0 0 1294 1283 1270 1260 0 0 0 0 0 0 0 0 0 0 0 0 0 0 0 0 0 0 0 0 0 0 0 0 0 0 0 0 0 1137 1137 1137 0 0 1141 1143 1145 1147 1149 1149 1154 1158 0 1162 0 0 0 0 0 0 0 0 0 0 0 0 0 0 0 0 0 0 0 0 0 0 0 0 0 0 0 0 0 0 0 0 0 0 0 0 0 0 0 0 0 0 0 0 0 0 0 0 0 0 0 0 302 302 302 302 302 302 302 301 302 302 302 301 301 301 301 301 301 300 300 300 300 301 301 301 301 301 301 302 302 302 303 303 304 304 305 305 305 305 305 305 305 304 304 304 303 303 0 0 0 0 0 0 0 299 299 299 299 299 299 300 300 300 300 300 300 300 300 299 299 299 299 299 299 299 299 299 299 299 298 298 298 298 298 298 298 298 298 298 298 298 298 298 298 298 297 297 297 297 297 297 297 298 298 298 298 298 298 298 298 298 298 298 299 298 298 298 298 299 299 299 298 298 298 298 298 297 297 297 296 296 296 296 296 296 296 296 295 295 295 295 295 295 295 295 296 296 297 297 297 298 298 299 299 299 299 300 300 300 300 300 301 301 301 302 302 302 302 302 302 302 303 302 303 302 302 302 302 302 302 301 301 301 300 300 299 299 298 298 298 298 0 0 0 0 0 0 0 0 293 293 293 293 293 293 294 294 295 295 295 295 296 295 295 295 295 294 294 294 294 294 293 293 294 294 295 295 295 295 295 295 295 295 295 0 0 0 0 0 0 0 0 0 6696 0 0 0 0 0 0 0 0 0 0 0 0 0 0 0 0 0 0 0 0 0 0 0 0 0 0 0 0 0 0 0 0 0 0 0 0 0 0 0 0 0 0 0 0 0 0 0 0 0 0 0 0 0 0 0 0 0 0 0 0 0 0 0 0 0 0 0 0 0 0 0 0 0 0 0 0 0 0 0 0 0 0 0 0 0 0 0 0 0 0 0 0 0 0 0 0 0 0 0 0 0 0 0 0 0 0 0 0 0 0 285 285 285 285 285 285 285 285 285 285 285 285 286 286 286 286 286 0 0 0 0 0 0 285 284 284 284 284 284 284 284 284 284 284 284 284 284 284 284 284 284 284 284 284 284 284 284 284 284 284 283 283 283 283 283 283 284 284 284 284 0 285 286 287 288 289 289 289 289 290 290 290 290
    0 0 0 0 0 0 0 0 0 0 0 0 0 0 0 0 0 0 0 0 0 0 0 0 0 0 0 0 0 0 0 0 0 0 0 0 0 0 0 0 0 0 0 0 0 0 0 0 0 0 0 0 0 0 0 0 0 0 0 0 0 0 0 0 0 0 0 0 0 0 0 0 0 0 0 0 0 0 0 0 0 0 0 0 0 0 0 0 0 0 0 0 0 0 0 0 0 0 0 0 0 0 0 0 0 0 0 0 0 0 0 1319 1313 0 1300 1286 1273 1262 1260 1252 1244 0 0 0 0 0 0 0 0 0 0 0 0 0 0 0 0 0 0 0 0 0 0 0 0 0 0 0 1137 1137 0 0 1141 1143 1145 1151 0 1162 1167 1173 1182 1189 1201 0 0 0 0 0 0 0 0 0 0 0 0 0 0 0 0 0 0 0 0 0 0 0 0 0 0 0 0 0 0 0 0 0 0 0 0 0 0 0 0 0 0 0 0 0 0 0 0 0 0 0 0 302 302 302 302 302 301 301 301 301 301 301 301 301 301 300 300 300 300 300 300 300 300 300 300 301 301 301 302 302 302 303 304 304 304 305 305 305 305 305 304 304 304 303 303 303 0 0 0 0 0 0 0 0 299 299 299 299 299 299 299 299 299 299 299 299 299 299 299 299 299 299 299 299 299 299 299 298 298 298 298 298 298 298 298 298 298 298 298 298 297 297 297 297 297 297 297 297 297 297 297 297 297 298 298 298 298 298 298 298 298 298 298 298 298 298 298 298 299 299 298 298 298 297 297 297 296 296 296 296 296 296 296 296 296 295 295 295 295 295 295 295 295 295 295 296 296 297 297 297 298 298 299 299 299 299 300 300 300 300 300 301 301 301 302 302 302 302 302 302 302 302 302 302 302 302 301 301 301 300 300 299 299 298 298 297 297 297 297 297 0 0 0 0 0 0 0 0 293 293 293 293 293 293 294 294 294 295 295 295 295 295 295 295 295 294 294 294 294 293 293 293 294 294 294 295 295 295 295 295 295 295 295 0 0 0 0 0 0 0 0 0 0 0 0 0 0 0 0 0 0 0 0 0 0 0 0 0 0 0 0 0 0 0 0 0 0 0 0 0 0 0 0 0 0 0 0 0 0 0 0 0 0 0 0 0 0 0 0 0 0 0 0 0 0 0 0 0 0 0 0 0 0 0 0 0 0 0 0 0 0 0 0 0 0 0 0 0 0 0 0 0 0 0 0 0 0 0 0 0 0 0 0 0 0 0 0 0 0 0 0 0 0 0 0 0 0 0 0 0 0 0 0 285 285 285 285 285 285 285 285 285 285 285 285 285 285 285 285 285 0 0 0 0 0 0 0 284 284 284 284 284 284 284 284 284 284 284 284 284 284 284 284 284 284 284 284 284 284 284 284 284 283 283 283 283 283 283 283 283 283 284 284 0 0 0 0 288 289 290 290 290 290 290 290 290
    0 0 0 0 0 0 0 0 0 0 0 0 0 0 0 0 0 0 0 0 0 0 0 0 0 0 0 0 0 0 0 0 0 0 0 0 0 0 0 0 0 0 0 0 0 0 0 0 0 0 0 0 0 0 0 0 0 0 0 0 0 0 0 0 0 0 0 0 0 0 0 0 0 0 0 0 0 0 0 0 0 0 0 0 0 0 0 0 0 0 0 0 0 0 0 0 0 0 0 0 0 0 0 0 0 0 0 0 0 0 0 1322 1313 1305 1300 1286 1273 1265 1262 1255 1247 0 0 0 0 0 0 0 0 0 0 0 0 0 0 0 0 0 0 0 0 0 0 0 0 0 0 0 0 0 0 0 0 0 1149 1160 0 1178 1187 1196 0 0 0 0 0 0 0 0 0 0 0 0 0 0 0 0 0 0 0 0 0 0 0 0 0 0 0 0 0 0 0 0 0 0 0 0 0 0 0 0 0 0 0 0 0 0 0 0 0 0 0 0 0 0 0 302 302 302 302 302 301 301 301 301 301 300 300 300 300 300 300 299 300 300 300 300 300 300 300 300 301 301 302 302 302 303 303 304 304 304 304 304 304 304 304 303 303 303 303 302 0 0 0 0 0 0 0 0 298 298 298 298 298 298 299 299 299 299 299 299 298 298 298 298 298 299 298 298 298 298 298 298 298 298 298 298 298 298 297 297 297 297 297 297 297 297 297 297 297 297 297 297 297 297 297 297 297 297 297 297 297 297 297 298 298 298 298 298 298 298 298 298 298 298 298 298 297 297 297 297 296 296 296 296 296 296 295 295 295 295 295 295 295 295 295 294 294 295 295 295 296 0 296 297 297 298 298 299 299 299 299 300 300 300 300 300 301 301 301 301 302 302 302 302 302 302 302 301 301 301 300 300 299 299 0 0 297 297 297 296 296 296 296 296 0 0 0 294 293 293 293 293 293 293 293 293 293 293 293 294 294 294 295 295 295 295 295 295 294 294 294 294 294 294 293 293 294 294 294 295 295 295 295 295 295 295 295 0 0 0 0 0 0 0 3899 0 0 0 0 0 0 0 0 0 0 0 0 0 0 0 0 0 0 0 0 0 0 0 0 0 0 0 0 0 0 0 0 0 0 0 0 0 0 0 0 0 0 0 0 0 0 0 0 0 0 0 0 0 0 0 0 0 0 0 0 0 0 0 0 0 0 0 0 0 0 0 0 0 0 0 0 0 0 0 0 0 0 0 0 0 0 0 0 0 0 0 0 0 0 0 0 0 0 0 0 0 0 0 0 0 0 0 0 0 0 0 0 284 285 285 285 285 285 285 285 285 285 285 285 285 285 285 285 285 285 285 285 0 0 285 284 284 284 284 284 284 284 284 284 284 284 284 284 284 284 284 284 284 284 284 284 284 284 284 284 283 283 283 283 283 283 283 283 283 283 283 284 284 0 0 0 0 0 290 290 291 291 291 291 291
    0 0 0 0 0 0 0 0 0 0 0 0 0 0 0 0 0 0 0 0 0 0 0 0 0 0 0 0 0 0 0 0 0 0 0 0 0 0 0 0 0 0 0 0 0 0 0 0 0 0 0 0 0 0 0 0 0 0 0 0 0 0 0 0 0 0 0 0 0 0 0 0 0 0 0 0 0 0 0 0 0 0 0 0 0 0 0 0 0 0 0 0 0 0 0 0 0 0 0 0 0 0 0 0 0 0 0 0 0 0 0 1322 1313 1305 1300 1286 1273 1265 1262 1255 0 0 0 0 0 0 0 0 0 0 0 0 0 0 0 0 0 0 0 0 0 0 0 0 0 0 0 0 0 1137 0 0 0 0 0 1187 0 0 1217 1232 0 0 0 0 0 0 0 0 0 0 0 0 0 0 0 0 0 0 0 0 0 0 0 0 0 0 0 0 0 0 0 0 0 0 0 0 0 0 0 0 0 0 0 0 0 0 0 0 0 0 0 0 0 0 0 303 303 302 302 301 301 301 301 301 300 300 300 300 300 299 299 299 299 299 299 299 299 300 300 300 300 301 301 302 302 303 303 304 304 304 304 304 304 304 303 303 303 0 302 302 0 0 0 0 0 0 0 0 0 298 298 298 298 298 298 298 298 298 298 298 298 298 298 298 298 298 298 298 298 298 298 298 298 298 298 298 298 297 297 297 297 297 297 297 297 297 297 297 297 297 297 297 297 297 297 297 297 297 297 297 297 297 297 297 297 297 297 297 297 297 298 298 298 297 297 297 297 297 296 296 296 296 296 295 295 295 295 295 295 295 295 295 294 294 294 294 294 294 294 295 295 295 296 296 297 297 298 298 299 299 299 299 299 300 300 300 300 301 301 301 301 301 301 301 301 301 301 301 301 300 300 299 298 0 0 0 0 0 0 295 295 295 295 295 0 0 0 294 293 293 293 293 292 292 292 293 293 293 293 293 294 294 294 294 294 294 294 294 294 294 294 294 294 294 294 294 294 294 294 295 295 295 295 295 295 295 295 0 0 0 0 0 3480 3500 3500 0 0 0 0 0 0 0 0 0 0 0 0 0 0 0 0 0 0 0 0 0 0 0 0 0 0 0 0 0 0 0 0 0 0 0 0 0 0 0 0 0 0 0 0 0 0 0 0 0 0 0 0 0 0 0 0 0 0 0 0 0 0 0 0 0 0 0 0 0 0 0 0 0 0 0 0 0 0 0 0 0 0 0 0 0 0 0 0 0 0 0 0 0 0 0 0 285 285 0 0 285 285 285 285 285 0 0 0 0 284 284 284 284 284 284 284 284 285 285 285 285 285 285 285 285 285 285 285 285 285 285 285 284 285 285 284 284 284 284 284 284 284 284 284 284 284 284 284 284 284 284 284 284 284 284 284 284 284 283 283 283 283 283 283 283 283 283 283 283 283 283 283 283 284 0 0 0 0 0 0 0 290 291 0 0
    0 0 0 0 0 0 0 0 0 0 0 0 0 0 0 0 0 0 0 0 0 0 0 0 0 0 0 0 0 0 0 0 0 0 0 0 0 0 0 0 0 0 0 0 0 0 0 0 0 0 0 0 0 0 0 0 0 0 0 0 0 0 0 0 0 0 0 0 0 0 0 0 0 0 0 0 0 0 0 0 0 0 0 0 0 0 0 0 0 0 0 0 0 0 0 0 0 0 0 0 0 0 0 0 0 0 0 0 0 0 0 0 0 0 0 1281 1270 1265 0 0 0 0 0 0 0 0 0 0 0 0 0 0 0 0 0 0 0 0 0 0 0 0 0 0 0 0 0 0 0 0 0 0 0 0 0 0 0 0 0 0 0 0 0 0 0 0 0 0 0 0 0 0 0 0 0 0 0 0 0 0 0 0 0 0 0 0 0 0 0 0 0 0 0 0 0 0 0 0 0 0 0 0 0 0 0 0 0 0 0 0 0 0 0 0 0 0 0 0 0 301 300 300 300 300 300 300 299 299 299 299 299 299 299 299 299 299 299 299 299 300 300 301 301 302 302 303 303 304 304 304 304 304 304 304 303 302 302 0 301 301 0 0 0 0 0 0 0 0 0 297 297 297 297 298 298 298 298 298 298 298 298 297 297 298 298 298 298 298 298 298 298 298 298 298 298 298 297 297 297 297 297 297 297 297 296 296 296 296 296 296 296 296 296 296 296 297 297 297 297 297 297 297 297 297 297 297 297 297 297 297 297 297 297 297 297 297 297 297 296 296 296 296 295 295 295 295 295 295 295 295 295 294 294 294 294 294 294 294 294 294 295 295 295 296 296 297 298 298 298 299 299 299 299 299 300 300 300 300 300 301 301 301 301 301 301 301 301 301 300 300 299 298 0 0 296 0 0 0 0 295 294 294 294 294 0 0 0 0 293 293 293 293 293 292 292 292 293 293 293 293 293 293 294 294 294 294 294 294 294 294 294 294 294 294 294 294 294 294 294 295 295 295 294 295 295 295 295 0 0 0 0 0 3277 3277 0 0 0 0 0 0 0 0 0 0 0 0 0 0 0 0 0 0 0 0 0 0 0 0 0 0 0 0 0 0 0 0 0 0 0 0 0 0 0 0 0 0 0 0 0 0 0 0 0 0 0 0 0 0 0 0 0 0 0 0 0 0 0 0 0 0 0 0 0 0 0 0 0 0 0 0 0 0 0 0 0 0 0 0 0 0 0 0 0 0 0 0 0 0 0 0 285 285 285 285 285 285 285 284 284 284 284 284 284 284 284 284 284 284 284 284 284 284 284 284 285 285 285 285 285 285 284 284 284 285 284 284 284 284 284 284 284 284 284 284 284 283 283 283 283 283 283 283 283 283 283 283 283 283 283 283 283 283 283 283 283 283 283 283 283 283 282 282 283 282 283 283 283 283 283 0 0 0 0 0 0 0 290 290 0 0
    0 0 0 0 0 0 0 0 0 0 0 0 0 0 0 0 0 0 0 0 0 0 0 0 0 0 0 0 0 0 0 0 0 0 0 0 0 0 0 0 0 0 0 0 0 0 0 0 0 0 0 0 0 0 0 0 0 0 0 0 0 0 0 0 0 0 0 0 0 0 0 0 0 0 0 0 0 0 0 0 0 0 0 0 0 0 0 0 0 0 0 0 0 0 0 0 0 0 0 0 0 0 0 0 0 0 0 0 0 0 0 0 0 0 0 0 0 0 0 0 0 0 0 0 0 0 0 0 0 0 0 0 0 0 0 0 0 0 0 0 0 0 0 0 0 0 0 0 0 0 0 0 0 0 0 0 0 0 0 1267 1278 1278 1283 1289 0 0 0 0 0 0 0 0 0 0 0 0 0 0 0 0 0 0 0 0 0 0 0 0 0 0 0 0 0 0 0 0 0 0 0 0 0 0 0 0 0 0 0 0 0 0 0 0 0 0 0 0 0 0 0 0 0 300 300 300 299 299 299 299 299 299 298 298 298 298 299 299 299 299 299 300 300 301 301 302 302 302 303 303 303 303 303 303 303 303 302 302 302 0 301 300 0 0 0 0 0 0 0 0 297 297 297 297 297 297 297 297 297 297 297 297 297 297 297 297 297 297 297 297 298 298 298 298 298 298 298 298 297 297 297 297 297 297 297 296 296 296 296 296 296 296 296 296 296 296 296 296 296 296 296 296 296 296 297 297 297 297 297 297 297 297 297 297 297 297 297 297 297 297 296 296 296 296 295 295 295 295 295 295 295 295 295 295 294 294 294 294 294 294 294 294 294 295 295 295 296 296 297 298 298 298 299 299 299 299 299 299 300 300 300 300 300 300 301 300 300 300 300 300 299 299 298 297 0 296 296 295 295 295 294 294 294 294 294 294 0 0 0 293 293 293 293 293 293 293 292 293 293 293 293 293 293 293 293 294 294 294 294 294 294 294 294 294 294 294 294 294 294 294 294 294 294 294 294 295 295 294 294 0 0 0 0 3225 3225 3225 3208 0 0 0 0 0 0 0 0 0 0 0 0 0 0 0 0 0 0 0 0 0 0 0 0 0 0 0 0 0 0 0 0 0 0 0 0 0 0 0 0 0 0 0 0 0 0 0 0 0 0 0 0 0 0 0 0 0 0 0 0 0 0 0 0 0 0 0 0 0 0 0 0 0 0 0 0 0 0 0 0 0 0 0 0 0 0 0 0 0 0 0 0 0 0 285 285 285 285 285 285 285 284 284 284 284 284 284 284 284 284 284 284 284 284 284 284 284 284 284 284 284 284 284 284 284 284 284 284 284 284 284 284 284 284 284 284 284 283 283 283 283 283 283 283 283 283 283 283 283 283 283 283 283 283 283 283 283 283 283 283 283 283 282 282 282 282 282 282 282 282 282 282 283 283 283 0 0 0 0 0 0 289 0 0 0
    0 0 0 0 0 0 0 0 0 0 0 0 0 0 0 0 0 0 0 0 0 0 0 0 0 0 0 0 0 0 0 0 0 0 0 0 0 0 0 0 0 0 0 0 0 0 0 0 0 0 0 0 0 0 0 0 0 0 0 0 0 0 0 0 0 0 0 0 0 0 0 0 0 0 0 0 0 0 0 0 0 0 0 0 0 0 0 0 0 0 0 0 0 0 0 0 0 0 0 0 0 0 0 0 0 0 0 0 0 0 0 0 0 0 0 1273 1265 1260 1257 1255 0 0 0 0 0 0 0 0 0 0 0 0 0 0 0 0 0 0 0 0 0 0 0 0 0 0 0 1208 0 0 0 0 0 0 0 0 0 0 1283 1286 1294 1294 1294 1297 1302 0 0 0 0 0 0 0 0 0 0 0 0 0 0 0 0 0 0 0 0 0 0 0 0 0 0 0 0 0 0 0 0 0 0 0 0 0 0 0 0 0 0 0 0 0 0 0 0 0 0 0 0 0 0 0 299 299 299 299 299 299 299 298 298 298 298 298 298 298 298 298 298 299 299 299 0 300 301 301 302 302 302 302 303 303 303 303 302 302 302 0 0 0 300 300 0 0 0 0 0 0 0 296 296 296 297 297 297 297 297 297 297 297 297 297 297 297 297 297 297 297 297 297 297 297 298 298 298 298 298 298 297 297 297 297 296 296 296 296 296 296 296 296 296 296 296 296 296 296 296 296 296 296 296 296 296 296 296 296 296 296 297 297 297 297 297 297 297 297 297 297 297 297 296 296 296 296 296 296 295 295 295 295 295 295 295 295 295 295 294 294 294 294 294 294 294 294 294 295 295 296 297 297 298 298 298 299 299 299 299 299 299 300 300 300 300 300 300 300 300 300 300 299 299 298 0 0 296 296 295 295 295 294 294 294 294 294 293 293 293 0 293 293 293 293 293 293 293 293 293 293 293 293 293 293 293 293 293 293 293 293 294 294 294 294 294 294 294 294 294 294 294 294 294 294 294 294 294 294 294 294 0 0 0 0 0 3208 3208 3208 3192 3175 0 0 0 0 0 0 0 0 0 0 0 0 0 0 0 0 0 0 0 0 0 0 0 0 0 0 0 0 0 0 0 0 0 0 0 0 0 0 0 0 0 0 0 0 0 0 0 0 0 0 0 0 0 0 0 0 0 0 0 0 0 0 0 0 0 0 0 0 0 0 0 0 0 0 0 0 0 0 0 0 0 0 0 0 0 0 0 0 0 0 0 0 285 284 284 285 284 284 284 284 284 284 284 284 284 284 284 284 284 284 283 284 284 284 284 284 284 284 284 284 284 284 284 284 284 284 284 284 284 284 283 283 283 283 283 283 283 283 283 283 283 283 283 283 283 283 283 283 283 283 283 283 283 283 283 283 283 283 283 282 282 282 282 282 282 282 282 282 282 282 282 282 282 283 283 284 0 0 0 0 0 288 0 0
    0 0 0 0 0 0 0 0 0 0 0 0 0 0 0 0 0 0 0 0 0 0 0 0 0 0 0 0 0 0 0 0 0 0 0 0 0 0 0 0 0 0 0 0 0 0 0 0 0 0 0 0 0 0 0 0 0 0 0 0 0 0 0 0 0 0 0 0 0 0 0 0 0 0 0 0 0 0 0 0 0 0 0 0 0 0 0 0 0 0 0 0 0 0 0 0 0 0 0 0 0 0 0 0 0 0 0 0 0 0 0 0 0 0 0 1273 1267 1262 1262 1260 1257 1255 1255 1255 0 0 0 0 0 0 0 0 0 0 0 0 0 0 0 0 0 0 0 0 0 0 0 0 0 0 0 0 0 0 0 1294 1294 1294 1297 1294 1297 1297 1297 1297 1300 1297 1297 0 0 0 0 0 0 0 0 0 0 0 0 0 0 0 0 0 0 0 0 0 0 0 0 0 0 0 0 0 0 0 0 0 0 0 0 0 0 0 0 0 0 0 0 0 0 0 0 0 0 0 0 0 0 299 299 299 298 298 298 298 298 298 298 297 298 298 298 298 298 298 298 0 299 300 300 301 301 301 302 302 302 302 302 302 302 301 301 0 300 300 300 299 0 0 0 0 0 0 0 0 296 296 296 297 296 297 297 297 297 297 297 297 296 296 297 296 297 297 297 297 297 297 298 298 298 298 298 298 297 297 297 296 296 296 296 296 296 296 296 296 296 296 296 296 296 296 296 296 296 296 296 296 296 296 296 296 296 296 296 296 297 297 297 297 297 297 297 297 297 297 297 296 296 296 296 296 296 295 295 295 295 295 295 295 295 295 295 295 294 294 294 294 294 294 294 294 295 295 296 297 298 298 298 298 299 299 299 299 299 299 299 300 300 300 300 300 300 300 299 299 298 0 0 296 296 295 295 295 294 294 294 294 294 293 293 293 293 0 0 0 0 293 293 293 293 293 293 293 293 293 293 293 293 293 293 293 293 293 293 294 294 294 294 294 294 294 294 294 294 294 294 294 294 294 294 294 294 294 294 0 0 0 3192 3192 3175 3175 3159 3143 3143 3143 3127 0 0 0 0 0 0 0 0 0 0 0 0 0 0 0 0 0 0 0 0 0 0 0 0 0 0 0 0 0 0 0 0 0 0 0 0 0 0 0 0 0 0 0 0 0 0 0 0 0 0 0 0 0 0 0 0 0 0 0 0 0 0 0 0 0 0 0 0 0 0 0 0 0 0 0 0 0 0 0 0 0 0 0 0 0 0 0 0 0 284 284 284 284 284 284 284 284 284 284 284 284 284 284 284 283 283 283 283 283 283 283 283 283 283 283 284 284 284 284 284 284 284 283 283 284 283 283 283 283 283 283 283 283 283 283 283 283 282 282 282 282 282 282 282 282 282 282 282 282 282 282 282 282 282 282 282 282 282 282 282 282 282 282 281 282 282 281 282 282 282 282 282 283 284 284 285 285 285 286 0 0
    0 0 0 0 0 0 0 0 0 0 0 0 0 0 0 0 0 0 0 0 0 0 0 0 0 0 0 0 0 0 0 0 0 0 0 0 0 0 0 0 0 0 0 0 0 0 0 0 0 0 0 0 0 0 0 0 0 0 0 0 0 0 0 0 0 0 0 0 0 0 0 0 0 0 0 0 0 0 0 0 0 0 0 0 0 0 0 0 0 0 0 0 0 0 0 0 0 0 0 0 0 0 0 0 0 0 0 0 0 0 1297 1291 1286 1286 1283 1278 1275 1273 1273 1270 1267 1267 1267 1267 1267 1267 1267 1267 1267 1267 1262 1260 1260 1255 1252 0 0 0 0 0 0 0 0 0 0 0 0 0 0 0 0 0 1291 1297 1300 1300 1300 1300 1300 1302 1300 1300 1297 1297 1294 1294 0 0 0 0 0 0 0 0 0 0 0 0 0 0 0 0 0 0 0 0 0 0 0 0 0 0 0 0 0 0 0 0 0 0 0 0 0 0 0 0 0 0 0 0 0 0 0 0 0 0 0 0 0 0 0 298 298 298 298 298 298 298 297 297 297 297 297 297 297 297 297 298 0 299 0 0 0 300 301 301 301 302 302 302 302 302 301 301 300 0 299 0 299 298 0 0 0 0 0 0 0 296 296 296 296 296 296 296 296 296 296 297 297 296 296 296 296 296 296 296 296 296 297 297 297 297 298 298 297 297 297 297 296 296 296 296 296 295 295 295 295 295 295 295 295 295 295 295 295 295 295 295 296 296 296 296 296 296 296 296 296 296 296 296 296 296 297 297 297 297 297 296 296 296 296 296 296 296 295 295 295 295 295 295 295 295 295 295 295 295 294 294 294 294 294 294 294 294 294 295 296 297 297 297 298 298 298 298 298 299 299 299 299 299 299 299 299 299 299 299 299 298 0 0 296 296 295 295 295 294 294 294 294 294 293 293 293 293 293 0 0 0 293 293 293 293 293 293 293 293 293 293 293 293 293 293 293 293 293 293 293 294 294 294 294 294 294 294 294 294 294 294 294 294 294 294 293 293 293 293 0 0 0 0 0 3159 3143 3143 3127 3127 3127 3127 3111 0 0 0 0 0 0 0 0 0 0 0 0 0 0 0 0 0 0 0 0 0 0 0 0 0 0 0 0 0 0 0 0 0 0 0 0 0 0 0 0 0 0 0 0 0 0 0 0 0 0 0 0 0 0 0 0 0 0 0 0 0 0 0 0 0 0 0 0 0 0 0 0 0 0 0 0 0 0 0 0 0 0 0 0 0 0 0 0 0 284 284 284 284 284 284 284 284 284 283 283 283 283 283 283 283 283 283 283 283 283 283 283 283 283 283 283 283 283 283 283 283 283 283 283 283 283 283 283 283 283 283 283 283 283 282 282 282 282 282 282 282 282 282 282 282 282 282 282 282 282 282 282 282 282 282 282 282 282 282 282 281 281 281 281 281 281 281 281 281 281 281 282 282 283 283 283 284 284 285 0 0
    0 0 0 0 0 0 0 0 0 0 0 0 0 0 0 0 0 0 0 0 0 0 0 0 0 0 0 0 0 0 0 0 0 0 0 0 0 0 0 0 0 0 0 0 0 0 0 0 0 0 0 0 0 0 0 0 0 0 0 0 0 0 0 0 0 0 0 0 0 0 0 0 0 0 0 0 0 0 0 0 0 0 0 0 0 0 0 0 0 0 0 0 0 0 0 0 0 0 0 0 0 0 0 0 0 0 0 0 0 0 1297 1294 1291 1286 1286 1283 1281 1278 1275 1273 1273 1275 1273 1275 1273 1275 1275 1275 1275 1273 1270 1267 1265 1260 1255 1252 1252 1247 0 0 0 0 0 0 0 0 0 1270 1275 1281 1286 1289 1294 1297 1297 1300 1300 1300 1300 1300 1297 1297 1294 1291 1294 1291 1289 0 0 0 0 0 0 0 0 0 0 0 0 0 0 0 0 0 0 0 0 0 0 0 0 0 0 0 0 0 0 0 0 0 0 0 0 0 0 0 0 0 0 0 0 0 0 0 0 0 0 0 0 0 0 297 297 297 297 297 297 297 297 297 297 297 297 297 297 297 297 297 298 0 0 0 300 300 300 300 301 301 301 301 301 301 301 300 300 299 299 0 299 0 0 0 0 0 0 0 0 0 296 296 296 296 296 296 296 296 296 296 296 296 296 296 296 296 296 296 296 296 297 297 297 297 297 297 297 297 297 296 296 296 296 296 295 295 295 295 295 295 295 295 295 295 295 295 295 295 295 295 295 295 295 295 296 296 296 296 296 296 296 296 296 296 296 296 296 296 296 296 296 296 296 296 296 295 295 295 295 295 295 295 295 295 295 295 295 294 294 294 293 293 293 293 294 294 294 295 295 296 296 297 297 297 298 298 298 298 298 299 299 299 299 299 298 298 298 298 297 297 297 296 296 295 295 294 294 294 294 294 294 294 293 293 293 293 293 293 292 292 292 292 292 292 292 292 292 292 292 292 292 292 293 292 292 292 293 293 293 293 293 293 293 294 294 294 294 294 293 294 294 294 293 293 293 293 293 293 292 0 0 0 0 3143 3143 3127 3127 3111 3111 3111 3111 0 0 0 0 0 0 0 0 0 0 0 0 0 0 0 0 0 0 0 0 0 0 0 0 0 0 0 0 0 0 0 0 0 0 0 0 0 0 0 0 0 0 0 0 0 0 0 0 0 0 0 0 0 0 0 0 0 0 0 0 0 0 0 0 0 0 0 0 0 0 0 0 0 0 0 0 0 0 0 0 0 0 0 0 0 0 0 0 284 283 284 284 284 283 283 283 283 283 283 283 283 283 283 283 283 283 283 283 283 283 283 283 283 283 283 283 283 283 283 283 283 283 283 283 283 283 283 283 283 283 283 283 282 282 282 282 282 282 282 282 282 281 281 281 281 282 282 282 282 282 282 282 282 282 282 282 282 281 281 281 281 281 281 281 281 281 281 281 281 281 281 281 281 282 282 283 283 283 284 284 0
    0 0 0 0 0 0 0 0 0 0 0 0 0 0 0 0 0 0 0 0 0 0 0 0 0 0 0 0 0 0 0 0 0 0 0 0 0 0 0 0 0 0 0 0 0 0 0 0 0 0 0 0 0 0 0 0 0 0 0 0 0 0 0 0 0 0 0 0 0 0 0 0 0 0 0 0 0 0 0 0 0 0 0 0 0 0 0 0 0 0 0 0 0 0 0 0 0 0 0 0 0 0 0 0 0 0 0 0 0 0 1297 1294 1289 1289 1286 1283 1281 1281 1278 1278 1278 1275 1278 1278 1278 1281 1281 1283 1283 1281 1275 1273 1265 1260 1255 1249 1249 1244 1242 0 0 0 0 0 0 0 0 1273 1278 1281 1286 1289 1294 1294 1297 1297 1300 1297 1300 1300 1297 1294 1294 1291 1291 1291 1289 1286 0 0 0 0 0 0 0 0 0 0 0 0 0 0 0 0 0 0 0 0 0 0 0 0 0 0 0 0 0 0 0 0 0 0 0 0 0 0 0 0 0 0 0 0 0 0 0 0 0 0 0 0 0 297 297 296 296 296 296 296 296 296 296 296 296 296 296 296 297 297 297 0 0 0 299 300 300 300 300 301 301 301 301 300 300 299 299 299 299 298 298 0 0 0 0 0 0 0 0 0 295 295 295 295 296 296 296 296 296 296 296 296 296 296 296 296 296 296 296 296 296 296 296 297 297 297 297 297 296 296 296 295 295 295 295 295 295 295 295 295 295 295 295 295 295 295 295 295 295 295 295 295 295 295 295 295 295 295 295 295 295 295 295 295 295 295 295 295 295 295 295 295 295 295 295 295 295 295 295 295 295 295 295 295 295 294 294 294 294 294 293 293 293 293 293 293 294 294 295 296 296 296 297 297 297 297 297 298 298 298 298 298 298 298 298 298 298 297 297 296 296 296 295 295 295 295 294 294 294 294 294 294 293 293 293 293 292 292 292 292 292 292 292 292 292 292 292 292 292 292 292 292 292 292 292 292 292 292 292 292 293 292 293 293 293 293 293 293 293 293 293 293 293 293 293 293 293 292 292 0 0 0 0 3127 3127 3111 3111 3095 3095 3095 3095 0 0 0 0 0 0 0 0 0 0 0 0 0 0 0 0 0 0 0 0 0 0 0 0 0 0 0 0 0 0 0 0 0 0 0 0 0 0 0 0 0 0 0 0 0 0 0 0 0 0 0 0 0 0 0 0 0 0 0 0 0 0 0 0 0 0 0 0 0 0 0 0 0 0 0 0 0 0 0 0 0 0 0 0 0 0 283 284 284 283 283 283 283 283 283 283 283 283 283 283 283 283 283 283 283 283 283 283 283 283 283 283 283 283 282 282 282 282 282 282 282 282 282 282 282 282 282 282 282 282 282 282 282 282 282 282 281 281 281 281 281 281 281 281 281 281 281 281 281 281 281 281 281 281 281 281 281 281 281 281 281 281 281 280 280 280 280 280 280 280 280 281 281 281 282 282 282 282 283 283 0
    0 0 0 0 0 0 0 0 0 0 0 0 0 0 0 0 0 0 0 0 0 0 0 0 0 0 0 0 0 0 0 0 0 0 0 0 0 0 0 0 0 0 0 0 0 0 0 0 0 0 0 0 0 0 0 0 0 0 0 0 0 0 0 0 0 0 0 0 0 0 0 0 0 0 0 0 0 0 0 0 0 0 0 0 0 0 0 0 0 0 0 0 0 0 0 0 0 0 0 0 0 0 0 0 0 0 0 0 0 0 1294 1294 1291 1289 1289 1286 1283 1281 1281 1281 1281 1281 1283 1283 1283 1283 1286 1286 1286 1283 1278 1275 1270 1262 1255 1249 1247 1242 1239 0 0 0 0 0 0 0 1267 1273 1278 1281 1289 1289 1291 1294 1294 1297 1297 1297 1297 1297 1297 1294 1294 1291 1289 1289 1289 0 0 0 0 0 0 0 0 0 0 0 0 0 0 0 0 0 0 0 0 0 0 0 0 0 0 0 0 0 0 0 0 0 0 0 0 0 0 0 0 0 0 0 0 0 0 0 0 0 0 0 0 0 0 296 296 296 296 296 296 296 296 296 295 295 296 296 296 296 296 296 0 0 298 299 299 299 300 300 300 300 300 300 300 300 300 299 299 299 298 298 298 0 0 0 0 0 0 0 0 0 295 295 295 295 295 295 295 295 295 295 295 295 295 295 295 295 296 295 296 296 296 296 296 296 296 296 296 296 296 295 295 295 295 295 295 295 295 295 295 295 294 294 294 294 294 294 294 294 295 295 295 295 295 295 295 295 295 295 295 295 295 295 295 295 295 295 295 295 295 295 295 295 295 295 295 295 295 294 295 294 294 294 295 295 294 294 294 294 294 294 293 293 293 293 293 293 294 294 294 295 295 296 296 296 297 297 297 297 297 297 297 297 297 297 297 297 297 296 296 296 296 295 295 295 295 294 294 294 294 294 294 294 293 293 293 292 292 292 292 292 291 291 0 292 292 291 291 291 291 291 291 291 291 291 291 291 291 291 291 291 291 291 291 291 292 292 292 292 292 292 292 293 293 293 293 293 292 292 292 0 0 0 0 3095 3095 3095 3095 3080 3080 3095 3095 0 0 0 0 0 0 0 0 0 0 0 0 0 0 0 0 0 0 0 0 0 0 0 0 0 0 0 0 0 0 0 0 0 0 0 0 0 0 0 0 0 0 0 0 0 0 0 0 0 0 0 0 0 0 0 0 0 0 0 0 0 0 0 0 0 0 0 0 0 0 0 0 0 0 0 0 0 0 0 0 0 0 0 0 0 0 283 283 283 283 283 283 283 283 283 283 283 283 283 283 283 283 282 282 282 282 282 282 282 282 282 282 282 282 282 282 282 282 282 282 282 282 282 282 282 282 282 282 282 282 282 282 282 281 281 281 281 281 281 281 281 281 281 281 281 281 281 281 281 281 281 281 281 281 281 281 281 281 281 280 280 280 280 280 280 280 280 280 280 280 280 280 280 281 281 281 282 282 282 0 0
    0 0 0 0 0 0 0 0 0 0 0 0 0 0 0 0 0 0 0 0 0 0 0 0 0 0 0 0 0 0 0 0 0 0 0 0 0 0 0 0 0 0 0 0 0 0 0 0 0 0 0 0 0 0 0 0 0 0 0 0 0 0 0 0 0 0 0 0 0 0 0 0 0 0 0 0 0 0 0 0 0 0 0 0 0 0 0 0 0 0 0 0 0 0 0 0 0 0 0 0 0 0 0 0 0 0 0 0 0 0 1291 1291 1289 1289 1289 1286 1286 1283 1283 1283 1283 1286 1286 1289 1289 1289 1289 1289 1286 1286 1281 1275 1270 1260 0 0 1244 1239 1237 0 1230 1227 0 0 0 0 1273 1275 1281 1283 1286 1289 1289 1291 1291 1294 1294 1297 1294 1294 1294 1291 1291 1289 1289 1286 1283 1283 0 0 0 0 0 0 0 0 0 0 0 0 0 0 0 0 0 0 0 0 0 0 0 0 0 0 0 0 0 0 0 0 0 0 0 0 0 0 0 0 0 0 0 0 0 0 0 0 0 0 0 0 0 295 295 295 295 295 295 295 295 295 295 295 295 295 295 296 296 296 0 0 298 299 299 299 299 299 300 300 300 300 300 299 299 299 298 298 298 297 297 0 0 0 0 0 0 0 0 0 294 295 295 295 295 295 295 295 295 295 295 295 295 295 295 295 295 295 295 295 295 295 295 296 296 296 296 296 295 295 295 295 295 295 294 294 294 294 294 294 294 294 294 294 294 294 294 294 294 294 294 294 294 295 295 295 295 295 295 295 295 295 295 295 295 295 295 295 295 295 295 295 295 294 294 294 294 294 294 294 294 294 294 294 294 294 294 294 294 293 293 293 293 293 293 293 293 294 294 295 295 295 295 296 296 296 296 297 297 297 297 297 297 0 296 296 0 296 296 296 295 295 295 295 295 295 294 294 294 294 294 294 293 293 292 292 292 292 292 291 291 291 0 291 291 291 291 291 291 291 291 291 291 291 291 290 290 290 290 290 290 290 290 290 290 290 291 291 291 291 292 292 292 293 293 293 292 292 0 0 0 0 0 0 0 3065 3049 3049 3049 3049 0 0 0 0 0 0 0 0 0 0 0 0 0 0 0 0 0 0 0 0 0 0 0 0 0 0 0 0 0 0 0 0 0 0 0 0 0 0 0 0 0 0 0 0 0 0 0 0 0 0 0 0 0 0 0 0 0 0 0 0 0 0 0 0 0 0 0 0 0 0 0 0 0 0 0 0 0 0 0 0 0 0 0 0 0 0 0 283 283 283 283 283 283 283 283 283 283 283 282 282 282 282 282 282 282 282 282 282 282 282 282 282 282 282 282 282 282 282 282 282 282 282 282 281 282 282 281 281 281 281 281 281 281 281 281 281 281 281 281 281 281 281 281 281 281 280 280 280 281 281 281 281 281 281 281 281 280 280 280 280 280 280 280 280 280 279 280 279 279 279 279 279 280 280 280 280 281 281 281 282 282 0
    0 0 0 0 0 0 0 0 0 0 0 0 0 0 0 0 0 0 0 0 0 0 0 0 0 0 0 0 0 0 0 0 0 0 0 0 0 0 0 0 0 0 0 0 0 0 0 0 0 0 0 0 0 0 0 0 0 0 0 0 0 0 0 0 0 0 0 0 0 0 0 0 0 0 0 0 0 0 0 0 0 0 0 0 0 0 0 0 0 0 0 0 0 0 0 0 0 0 0 0 0 0 0 0 0 0 0 0 0 0 1289 1289 1289 1286 1286 1286 1286 1286 1286 1286 1289 1291 1291 1291 1294 1294 1294 1294 1294 1291 1286 1278 1270 0 1252 1247 1244 1239 1234 1230 1230 0 0 0 0 0 1275 1278 1283 1283 1283 1286 1286 1289 1289 1291 1291 1294 1291 1291 1291 1289 1289 1286 1286 1286 1283 1281 0 0 0 0 0 0 0 0 0 0 0 0 0 0 0 0 0 0 0 0 0 0 0 0 0 0 0 0 0 0 0 0 0 0 0 0 0 0 0 0 0 0 0 0 0 0 0 0 0 0 0 0 295 295 295 295 295 295 295 295 295 295 295 295 295 295 295 295 295 0 0 296 0 0 0 299 299 299 299 299 299 299 299 299 299 298 298 298 297 297 297 0 0 0 0 0 0 0 0 294 294 294 294 294 294 295 295 295 295 295 295 295 295 295 295 295 295 295 295 295 295 295 295 295 295 295 295 295 295 295 294 294 294 294 294 294 294 294 294 294 294 294 294 294 294 294 293 294 294 294 294 294 294 294 294 295 294 295 295 295 295 294 294 294 294 294 294 294 294 294 294 294 294 293 293 293 293 293 293 293 293 294 294 294 294 294 294 293 293 293 293 293 293 293 293 293 293 293 294 294 294 295 295 295 295 296 296 296 296 296 296 296 0 0 296 296 295 295 295 295 295 295 295 295 295 294 294 294 294 294 294 293 293 293 292 292 292 292 291 291 291 291 291 291 291 291 291 291 291 291 290 290 290 290 290 289 289 289 289 289 289 289 289 289 289 289 290 290 290 290 291 291 292 292 292 292 292 0 0 0 0 0 0 0 0 0 3034 3034 3034 3034 0 0 0 0 0 0 0 0 0 0 0 0 0 0 0 0 0 0 0 0 0 0 0 0 0 0 0 0 0 0 0 0 0 0 0 0 0 0 0 0 0 0 0 0 0 0 0 0 0 0 0 0 0 0 0 0 0 0 0 0 0 0 0 0 0 0 0 0 0 0 0 0 0 0 0 0 0 0 0 0 0 0 0 0 0 283 283 283 283 283 283 283 283 283 282 282 282 282 282 282 282 282 282 282 282 282 282 282 282 282 282 282 282 282 282 281 281 281 281 281 281 281 281 281 281 281 281 281 281 281 281 281 281 281 281 281 281 281 281 281 280 281 280 280 280 280 280 280 280 280 280 280 280 280 280 280 280 280 280 280 280 280 279 279 279 279 279 279 279 279 279 279 279 279 280 280 280 281 281 281 282 282
    0 0 0 0 0 0 0 0 0 0 0 0 0 0 0 0 0 0 0 0 0 0 0 0 0 0 0 0 0 0 0 0 0 0 0 0 0 0 0 0 0 0 0 0 0 0 0 0 0 0 0 0 0 0 0 0 0 0 0 0 0 0 0 0 0 0 0 0 0 0 0 0 0 0 0 0 0 0 0 0 0 0 0 0 0 0 0 0 0 0 0 0 0 0 0 0 0 0 0 0 0 0 0 0 0 0 0 0 0 0 1283 1283 1283 1283 1283 1286 1286 1286 1286 1289 1289 1291 1297 1300 1300 1300 1300 1297 1297 1294 1289 1281 1273 0 1252 1247 1242 1237 1232 1227 1227 0 0 0 0 0 0 0 1281 1281 1283 1283 1283 1286 1286 1289 1289 1289 1291 1291 1289 1289 1286 1286 1286 1283 1283 1281 1278 0 0 0 0 0 0 0 0 0 0 0 0 0 0 0 0 0 0 0 0 0 0 0 0 0 0 0 0 0 0 0 0 0 0 0 0 0 0 0 0 0 0 0 0 0 0 0 0 0 0 0 295 294 295 294 294 294 294 294 294 294 294 294 294 294 295 295 295 0 0 0 0 0 0 298 298 299 298 299 299 299 299 298 298 298 297 297 297 297 297 0 0 0 0 0 0 0 0 293 294 294 294 294 294 294 294 294 294 294 294 295 295 295 295 295 295 295 295 295 295 295 295 294 294 294 295 295 294 294 294 294 294 294 294 294 294 294 294 294 294 294 294 293 293 293 293 293 293 293 293 294 294 294 294 294 294 294 294 294 294 294 294 294 293 293 293 293 293 293 293 293 293 293 292 293 293 292 293 293 293 293 293 293 293 293 293 293 293 293 293 293 293 293 293 293 293 293 294 294 294 294 294 295 295 295 295 295 295 296 296 295 295 295 295 295 295 295 295 295 295 295 295 294 294 294 294 294 294 294 294 293 293 293 292 292 292 292 291 291 291 291 291 291 290 290 290 290 290 290 290 290 289 289 289 289 288 288 288 288 288 288 288 288 288 288 289 289 0 289 290 0 0 0 0 292 292 0 0 0 0 0 0 0 0 0 0 0 0 0 0 0 0 0 0 0 0 0 0 0 0 0 0 0 0 0 0 0 0 0 0 0 0 0 0 0 0 0 0 0 0 0 0 0 0 0 0 0 0 0 0 0 0 0 0 0 0 0 0 0 0 0 0 0 0 0 0 0 0 0 0 0 0 0 0 0 0 0 0 0 0 0 0 0 0 0 0 0 0 0 0 0 0 0 0 283 283 283 283 283 283 283 282 282 282 282 282 282 282 282 282 282 282 282 282 282 282 282 282 282 281 281 281 281 281 281 281 281 281 281 281 281 281 281 281 281 281 281 281 281 281 281 280 280 281 280 280 280 280 280 280 280 280 280 280 280 280 280 280 280 280 280 280 280 280 280 280 280 280 279 279 279 279 279 279 279 279 279 279 279 279 279 279 279 279 279 280 280 280 281 281 282
    0 0 0 0 0 0 0 0 0 0 0 0 0 0 0 0 0 0 0 0 0 0 0 0 0 0 0 0 0 0 0 0 0 0 0 0 0 0 0 0 0 0 0 0 0 0 0 0 0 0 0 0 0 0 0 0 0 0 0 0 0 0 0 0 0 0 0 0 0 0 0 0 0 0 0 0 0 0 0 0 0 0 0 0 0 0 0 0 0 0 0 0 0 0 0 0 0 0 0 0 0 0 0 0 0 0 0 0 0 0 1275 1275 1278 1278 1278 1281 1283 1283 1286 1289 1291 1294 1300 1300 1302 1302 1302 1302 1300 1297 1291 1283 1273 1262 1255 1247 0 1237 1234 1230 0 0 0 0 0 0 0 0 0 0 1273 1278 1281 1283 1283 1283 1286 1289 1289 1289 1289 1289 1286 1283 1283 1283 1281 1281 1281 0 0 0 0 0 0 0 0 0 0 0 0 0 0 0 0 0 0 0 0 0 0 0 0 0 0 0 0 0 0 0 0 0 0 0 0 0 0 0 0 0 0 0 0 0 0 0 0 0 0 0 294 294 294 294 294 294 294 294 294 294 294 294 294 294 294 294 294 0 0 0 0 0 0 298 298 298 298 298 298 298 298 298 298 297 297 297 0 296 296 295 0 0 0 0 0 0 0 293 293 293 293 293 294 294 294 294 294 294 294 294 294 294 295 295 295 295 294 294 294 294 294 294 294 294 294 294 293 293 293 293 293 293 293 293 293 293 294 294 293 293 293 293 293 293 293 293 293 293 293 293 293 294 294 294 294 294 294 294 294 294 293 293 293 293 292 292 292 292 292 292 292 292 292 292 292 292 292 292 292 292 292 293 293 293 293 293 292 292 292 292 292 292 292 293 293 293 293 294 294 294 294 294 294 294 295 295 295 295 295 295 295 295 295 294 294 294 294 294 295 294 294 294 294 294 294 294 294 294 293 293 293 292 292 292 292 291 291 291 291 291 290 290 290 290 290 290 290 290 290 289 289 289 288 288 288 287 287 287 287 287 287 288 287 288 288 288 288 289 0 0 0 0 0 0 0 0 0 0 0 0 0 0 0 0 0 0 0 0 0 0 0 0 0 0 0 0 0 0 0 0 0 0 0 0 0 0 0 0 0 0 0 0 0 0 0 0 0 0 0 0 0 0 0 0 0 0 0 0 0 0 0 0 0 0 0 0 0 0 0 0 0 0 0 0 0 0 0 0 0 0 0 0 0 0 0 0 0 0 0 0 0 0 0 0 0 0 0 0 0 0 0 0 0 283 283 283 283 283 282 282 282 282 282 282 282 282 282 282 282 282 282 282 281 281 281 281 281 281 281 281 281 281 281 281 281 281 281 281 280 280 280 280 280 280 280 280 280 280 280 280 280 280 280 280 280 280 280 280 280 280 280 280 280 280 280 280 280 279 279 279 279 279 279 279 279 279 279 279 279 279 279 279 279 279 279 279 279 279 279 279 279 279 279 279 279 280 280 280 281 281
    0 0 0 0 0 0 0 0 0 0 0 0 0 0 0 0 0 0 0 0 0 0 0 0 0 0 0 0 0 0 0 0 0 0 0 0 0 0 0 0 0 0 0 0 0 0 0 0 0 0 0 0 0 0 0 0 0 0 0 0 0 0 0 0 0 0 0 0 0 0 0 0 0 0 0 0 0 0 0 0 0 0 0 0 0 0 0 0 0 0 0 0 0 0 0 0 0 0 0 0 0 0 0 0 0 0 0 0 0 0 1267 1267 1270 1273 1273 1275 1278 1278 1283 1286 1289 1294 1297 1300 1302 1305 1305 1305 1302 1300 1291 1283 1275 0 1255 1249 0 1237 1230 0 0 0 0 0 0 0 0 0 0 0 1260 1267 1275 1278 1278 1281 1283 1286 1286 1289 1286 1289 1286 1286 1283 1283 1283 1281 1281 0 0 0 0 0 0 0 0 0 0 0 0 0 0 0 0 0 0 0 0 0 0 0 0 0 0 0 0 0 0 0 0 0 0 0 0 0 0 0 0 0 0 0 0 0 0 0 0 0 0 0 294 294 294 294 294 294 294 294 294 294 294 294 294 294 294 294 294 0 0 0 0 0 0 298 298 298 298 298 298 298 297 297 297 297 296 296 296 296 296 295 0 0 0 0 0 0 0 293 293 293 293 293 293 293 293 293 293 294 294 294 294 294 294 294 294 294 294 294 294 294 294 294 293 293 293 293 293 293 293 293 293 293 293 293 293 293 293 293 293 293 293 293 293 293 293 293 293 293 293 293 293 293 294 294 294 294 294 294 294 294 293 293 292 292 292 292 291 291 291 291 291 291 291 291 291 291 292 292 292 292 292 292 292 292 292 292 292 292 292 292 292 292 293 293 293 293 293 293 293 293 294 293 294 294 294 294 294 294 294 294 294 294 294 294 294 294 294 294 294 294 294 294 294 294 294 294 294 293 293 293 293 292 292 292 292 291 291 291 291 291 290 290 290 290 290 290 290 290 289 289 289 288 288 288 287 0 287 287 287 287 287 287 287 287 287 288 288 288 0 0 0 0 0 0 0 0 0 0 0 0 0 0 0 0 0 0 0 0 0 0 0 0 0 0 0 0 0 0 0 0 0 0 0 0 0 0 0 0 0 0 0 0 0 0 0 0 0 0 0 0 0 0 0 0 0 0 0 0 0 0 0 0 0 0 0 0 0 0 0 0 0 0 0 0 0 0 0 0 0 0 0 0 0 0 0 0 0 0 0 0 0 0 0 0 0 0 0 0 0 0 0 0 282 282 282 282 282 282 282 282 282 282 282 282 281 281 281 281 281 281 281 281 281 281 281 281 281 281 281 281 281 281 280 280 280 280 280 280 280 280 280 280 280 280 280 280 280 280 280 280 280 280 280 280 280 280 280 280 280 280 280 280 280 279 279 279 279 279 279 279 279 279 279 279 279 279 279 279 279 279 279 279 279 278 278 278 278 278 278 278 278 279 279 279 279 279 279 280 280 281
    0 0 0 0 0 0 0 0 0 0 0 0 0 0 0 0 0 0 0 0 0 0 0 0 0 0 0 0 0 0 0 0 0 0 0 0 0 0 0 0 0 0 0 0 0 0 0 0 0 0 0 0 0 0 0 0 0 0 0 0 0 0 0 0 0 0 0 0 0 0 0 0 0 0 0 0 0 0 0 0 0 0 0 0 0 0 0 0 0 0 0 0 0 0 0 0 0 0 0 0 0 0 0 0 0 0 0 0 0 0 1265 1265 1267 1267 1267 1270 1273 1273 1278 1281 1286 1289 1294 1297 1302 1302 1302 1302 1300 1294 1289 1278 1270 1262 1252 1249 0 1239 1234 0 0 0 0 0 0 0 0 0 0 0 0 1262 1270 1275 1275 1278 1281 1283 1283 1286 1286 1289 1286 1289 1286 1286 1286 1283 1283 0 0 0 0 0 0 0 0 0 0 0 0 0 0 0 0 0 0 0 0 0 0 0 0 0 0 0 0 0 0 0 0 0 0 0 0 0 0 0 0 0 0 0 0 0 0 0 0 0 0 0 293 293 293 293 293 293 293 293 293 293 293 293 293 293 293 293 293 0 0 0 0 0 0 0 297 297 297 297 297 297 297 297 296 296 296 295 295 295 295 294 0 0 0 291 291 292 0 292 292 292 293 292 293 293 293 293 293 293 293 293 293 293 294 294 294 294 293 293 293 293 293 293 293 293 293 292 292 292 292 292 292 292 292 292 293 293 293 293 293 293 293 293 293 293 293 293 293 293 293 293 293 293 294 294 294 294 294 294 294 294 293 293 292 292 292 291 291 291 291 291 291 291 291 291 291 291 291 291 291 292 292 292 292 292 292 292 292 292 292 292 292 292 292 293 293 293 293 293 293 293 293 293 294 294 294 294 294 294 294 294 294 294 294 294 294 294 294 294 294 294 294 294 294 294 294 293 294 293 293 293 293 292 292 292 291 291 291 291 290 290 290 290 290 290 290 290 290 289 289 289 288 288 287 287 287 287 287 286 286 286 287 287 287 287 287 287 287 287 287 0 0 0 0 0 0 0 0 0 0 0 0 0 0 0 0 0 0 0 0 0 0 0 0 0 0 0 0 0 0 0 0 0 0 0 0 0 0 0 0 0 0 0 0 0 0 0 0 0 0 0 0 0 0 0 0 0 0 0 0 0 0 0 0 0 0 0 0 0 0 0 0 0 0 0 0 0 0 0 0 0 0 0 0 0 0 0 0 0 0 0 0 0 0 0 0 0 0 0 0 0 0 0 282 282 282 282 282 282 282 282 281 281 281 281 281 281 281 281 281 281 281 281 281 281 281 281 280 280 280 280 280 280 280 280 280 280 280 280 280 280 280 280 280 280 280 279 280 280 280 279 280 280 280 280 280 280 280 280 280 280 279 279 279 279 279 279 279 279 279 279 279 279 279 279 279 279 279 279 279 279 278 278 278 278 278 278 278 278 278 278 278 278 278 279 279 279 279 279 280 280
    0 0 0 0 0 0 0 0 0 0 0 0 0 0 0 0 0 0 0 0 0 0 0 0 0 0 0 0 0 0 0 0 0 0 0 0 0 0 0 0 0 0 0 0 0 0 0 0 0 0 0 0 0 0 0 0 0 0 0 0 0 0 0 0 0 0 0 0 0 0 0 0 0 0 0 0 0 0 0 0 0 0 0 0 0 0 0 0 0 0 0 0 0 0 0 0 0 0 0 0 0 0 0 0 0 0 0 0 0 0 1262 1262 1262 1262 1262 1265 1267 1270 1273 1278 1281 1286 1289 1294 1300 1300 1300 1297 1294 1289 1283 1273 1267 1260 1252 1247 1244 1239 1234 1225 0 0 0 0 0 0 0 0 0 0 0 1249 1260 1270 1273 1275 1278 1281 1283 1283 1286 1289 1289 1289 1289 1289 1289 1289 1286 0 0 0 0 0 0 0 0 0 0 0 0 0 0 0 0 0 0 0 0 0 0 0 0 0 0 0 0 0 0 0 0 0 0 0 0 0 0 0 0 0 0 0 0 0 0 0 0 0 0 0 293 293 293 293 293 293 293 293 293 293 293 293 293 293 293 293 0 0 0 0 0 0 0 0 297 297 297 297 297 297 297 296 296 295 295 295 295 295 294 294 0 0 291 290 291 0 291 292 292 292 292 292 292 292 292 292 293 293 293 293 293 293 293 293 293 293 293 293 293 293 293 293 293 292 292 292 292 292 292 292 292 292 292 292 292 292 292 293 293 293 293 293 293 293 292 292 292 292 293 293 293 293 293 294 294 294 294 294 294 294 293 293 292 292 292 291 291 291 291 291 291 291 291 291 291 291 291 291 291 291 291 292 292 292 292 292 292 292 292 292 292 292 292 292 292 292 293 293 293 293 293 293 293 293 293 293 293 293 293 294 294 294 294 294 294 294 294 294 294 294 294 294 294 293 293 293 293 293 293 293 293 292 292 292 291 291 291 291 290 290 290 290 290 290 290 290 289 289 289 288 288 287 287 287 286 286 286 286 286 286 286 286 286 286 286 286 286 286 0 0 0 0 0 0 0 0 0 0 0 0 0 0 0 0 0 0 0 0 0 0 0 0 0 0 0 0 0 0 0 0 0 0 0 0 0 0 0 0 0 0 0 0 0 0 0 0 0 0 0 0 0 0 0 0 0 0 0 0 0 0 0 0 0 0 0 0 0 0 0 0 0 0 0 0 0 0 0 0 0 0 0 0 0 0 0 0 0 0 0 0 0 0 0 0 0 0 0 0 0 0 0 0 0 0 282 282 282 282 281 281 281 281 281 281 281 281 281 281 281 281 281 280 280 280 280 280 280 280 280 280 280 280 280 280 280 279 279 279 279 279 279 279 279 279 279 279 279 279 279 279 279 279 279 279 279 279 279 279 279 279 279 279 279 279 279 279 279 279 279 279 279 279 279 279 279 279 278 278 278 278 278 278 278 278 278 278 278 278 278 278 278 278 278 278 279 279 279 279 279 280
    0 0 0 0 0 0 0 0 0 0 0 0 0 0 0 0 0 0 0 0 0 0 0 0 0 0 0 0 0 0 0 0 0 0 0 0 0 0 0 0 0 0 0 0 0 0 0 0 0 0 0 0 0 0 0 0 0 0 0 0 0 0 0 0 0 0 0 0 0 0 0 0 0 0 0 0 0 0 0 0 0 0 0 0 0 0 0 0 0 0 0 0 0 0 0 0 0 0 0 0 0 0 0 0 0 0 0 0 0 0 1249 1249 1255 1255 1255 1257 1257 1262 1270 1273 1275 1281 1289 1294 1300 1300 1302 1302 1297 1294 1291 1286 1281 1275 1270 1265 1262 1260 1249 0 0 0 0 0 0 0 0 0 0 0 0 0 1257 1267 1273 1273 1275 1278 1281 1283 1286 1289 1291 1291 1291 1291 1291 0 0 0 0 0 0 0 0 0 0 0 0 0 0 0 0 0 0 0 0 0 0 0 0 0 0 0 0 0 0 0 0 0 0 0 0 0 0 0 0 0 0 0 0 0 0 0 0 0 0 0 0 293 293 293 293 293 293 293 293 293 292 292 292 292 292 292 292 293 0 0 0 0 0 0 0 0 297 297 297 297 297 297 296 296 295 295 295 295 294 294 294 0 0 0 0 290 290 290 291 291 291 291 292 292 292 292 292 292 292 292 292 292 292 293 293 293 293 293 293 293 293 293 293 292 292 292 292 292 291 291 291 291 291 291 291 292 292 292 292 292 292 292 292 293 292 292 292 292 292 292 292 293 293 293 294 294 294 294 294 295 294 294 293 293 292 292 291 291 291 290 290 290 291 290 291 291 291 291 291 291 291 291 291 291 292 292 292 291 291 291 291 291 291 291 291 291 0 0 292 0 293 293 293 293 293 293 293 293 293 293 293 293 293 294 294 294 294 294 294 294 294 294 294 294 294 294 293 293 293 293 293 293 293 292 292 291 291 291 291 291 290 290 290 290 290 290 290 289 289 289 288 288 0 0 286 286 286 285 285 285 285 285 286 285 285 286 285 285 285 285 285 0 0 0 0 0 0 0 0 0 0 0 0 0 0 0 0 0 0 0 0 0 0 0 0 0 0 0 0 0 0 0 0 0 0 0 0 0 0 0 0 0 0 0 0 0 0 0 0 0 0 0 0 0 0 0 0 0 0 0 0 0 0 0 0 0 0 0 0 0 0 0 0 0 0 0 0 0 0 0 0 0 0 0 0 0 0 0 0 0 0 0 0 0 0 0 0 0 0 0 0 0 0 0 0 281 281 281 281 281 281 281 281 281 280 280 280 280 280 280 280 280 280 280 280 280 280 280 280 280 280 280 279 279 279 279 279 279 279 279 279 279 279 279 279 279 279 279 279 279 279 279 279 279 279 279 279 279 279 279 279 279 279 279 279 279 279 279 279 279 279 279 278 278 278 278 278 278 278 278 278 278 278 278 278 278 278 278 278 278 278 278 278 278 278 278 278 279 279 279 279 279
    0 0 0 0 0 0 0 0 0 0 0 0 0 0 0 0 0 0 0 0 0 0 0 0 0 0 0 0 0 0 0 0 0 0 0 0 0 0 0 0 0 0 0 0 0 0 0 0 0 0 0 0 0 0 0 0 0 0 0 0 0 0 0 0 0 0 0 0 0 0 0 0 0 0 0 0 0 0 0 0 0 0 0 0 0 0 0 0 0 0 0 0 0 0 0 0 0 0 0 0 0 0 0 0 0 0 0 0 0 0 1239 1242 1244 1244 1244 1242 1244 1249 1255 1265 1270 1278 0 1294 0 0 0 0 0 0 0 0 0 0 0 0 0 0 0 0 0 0 1178 0 0 0 0 0 1191 0 0 0 1255 1265 1270 1270 1273 1278 1281 1281 1283 1289 1289 1291 1291 1291 0 0 0 0 0 0 0 0 0 0 0 0 0 0 0 0 0 0 0 0 0 0 0 0 0 0 0 0 0 0 0 0 0 0 0 0 0 0 0 0 0 0 0 0 0 0 0 0 0 0 0 0 293 293 293 293 292 293 292 292 292 292 292 292 292 292 292 292 292 0 0 0 0 0 0 0 0 0 0 0 297 297 296 296 296 295 295 295 294 294 294 293 293 0 0 0 0 0 290 0 290 290 291 291 291 291 291 291 291 291 292 292 292 292 292 292 292 292 293 293 292 293 292 292 292 292 292 292 291 291 291 291 291 291 291 291 291 291 291 292 292 292 292 292 292 292 292 292 292 292 292 292 292 292 293 293 293 294 294 295 295 295 295 294 294 293 292 292 291 291 290 290 290 290 290 290 290 290 290 291 291 291 291 291 291 291 291 291 291 291 291 291 290 290 290 290 290 290 291 291 0 0 292 293 293 293 293 292 293 293 293 293 293 293 293 294 294 294 294 294 294 294 294 294 293 293 293 293 293 293 293 293 293 293 293 292 292 291 291 291 291 290 290 290 290 290 290 290 290 289 289 289 288 287 287 286 0 285 285 0 285 285 285 285 285 285 285 285 285 285 285 285 284 284 0 0 0 0 0 0 0 0 0 0 0 0 0 0 0 0 0 0 0 0 0 0 0 0 0 0 0 0 0 0 0 0 0 0 0 0 0 0 0 0 0 0 0 0 0 0 0 0 0 0 0 0 0 0 0 0 0 0 0 0 0 0 0 0 0 0 0 0 0 0 0 0 0 0 0 0 0 0 0 0 0 0 0 0 0 0 0 0 0 0 0 0 0 0 0 0 0 0 0 0 0 0 281 281 281 281 281 281 281 280 280 280 280 280 280 280 280 280 280 280 280 279 279 279 279 279 279 279 279 279 279 279 279 279 279 279 279 279 279 279 279 279 279 279 279 279 279 279 279 279 279 279 279 279 279 279 279 279 279 279 279 279 279 279 279 279 278 278 278 278 278 278 278 278 278 278 278 278 278 278 278 278 278 278 278 278 278 278 278 278 278 278 278 278 278 279 279 279 279 279
    0 0 0 0 0 0 0 0 0 0 0 0 0 0 0 0 0 0 0 0 0 0 0 0 0 0 0 0 0 0 0 0 0 0 0 0 0 0 0 0 0 0 0 0 0 0 0 0 0 0 0 0 0 0 0 0 0 0 0 0 0 0 0 0 0 0 0 0 0 0 0 0 0 0 0 0 0 0 0 0 0 0 0 0 0 0 0 0 0 0 0 0 0 0 0 0 0 0 0 0 0 0 0 0 0 0 0 0 0 0 1234 1234 1232 1234 1234 1237 1239 1244 1247 1257 1265 1273 1283 1291 0 0 0 0 0 0 0 0 0 0 1300 1300 1300 1294 1286 1273 0 0 0 0 0 0 0 0 1187 0 0 0 1255 1262 1267 1270 1273 1275 1278 1281 1283 1286 1289 1291 1291 1291 0 0 0 0 0 0 0 0 0 0 0 0 0 0 0 0 0 0 0 0 0 0 0 0 0 0 0 0 0 0 0 0 0 0 0 0 0 0 0 0 0 0 0 0 0 0 0 0 0 0 0 0 293 292 292 292 292 292 292 292 292 292 292 292 292 292 292 292 292 0 0 0 0 0 0 0 0 0 0 0 0 296 296 296 0 295 295 294 294 294 293 293 292 0 0 0 0 289 289 290 290 290 290 290 291 291 291 291 291 291 291 291 291 291 292 292 292 292 292 292 292 292 292 292 292 292 291 291 291 290 290 290 290 290 290 290 290 291 291 291 291 292 292 292 292 292 292 292 292 292 292 292 292 292 292 293 293 294 294 295 295 295 294 294 294 293 292 291 291 291 290 290 290 290 290 290 290 290 290 291 291 291 291 291 291 291 291 291 291 291 290 290 290 290 290 289 289 0 290 0 0 0 0 292 292 292 292 292 292 293 293 293 293 293 293 293 294 294 294 294 294 294 293 293 293 293 293 293 293 293 293 293 0 293 292 292 291 291 290 0 0 290 290 0 290 290 290 290 290 289 289 289 288 287 286 285 285 285 284 284 284 285 285 285 285 285 285 285 285 285 284 284 284 0 0 0 0 0 0 0 0 0 0 0 0 0 0 0 0 0 0 0 0 0 0 0 0 0 0 0 0 0 0 0 0 0 0 0 0 0 0 0 0 0 0 0 0 0 0 0 0 0 0 0 0 0 0 0 0 0 0 0 0 0 0 0 0 0 0 0 0 0 0 0 0 0 0 0 0 0 0 0 0 0 0 0 0 0 0 0 0 0 0 0 0 0 0 0 0 0 0 0 280 280 280 280 280 280 280 280 280 280 280 280 280 280 280 279 279 279 279 279 279 279 279 279 279 279 279 279 279 279 279 279 279 279 279 279 279 279 279 279 279 279 279 279 279 279 279 279 279 279 279 279 278 279 279 279 279 279 279 279 279 279 279 279 279 279 279 278 278 278 278 278 278 278 278 278 278 278 278 278 278 278 278 278 278 278 278 278 278 278 278 278 278 278 278 278 278 278 279 279 279 279
    0 0 0 0 0 0 0 0 0 0 0 0 0 0 0 0 0 0 0 0 0 0 0 0 0 0 0 0 0 0 0 0 0 0 0 0 0 0 0 0 0 0 0 0 0 0 0 0 0 0 0 0 0 0 0 0 0 0 0 0 0 0 0 0 0 0 0 0 0 0 0 0 0 0 0 0 0 0 0 0 0 0 0 0 0 0 0 0 0 0 0 0 0 0 0 0 0 0 0 0 0 0 0 0 0 0 0 0 0 0 1227 1230 1232 1230 0 1232 1234 1239 1244 0 1262 1270 0 0 0 0 0 0 0 0 0 0 1319 0 0 0 1313 1308 0 0 0 0 0 0 1164 0 1156 1162 1189 1210 0 0 1252 1260 1265 1267 1270 1273 1278 1281 1283 1289 1289 1289 1291 1291 0 0 0 0 0 0 0 0 0 0 0 0 0 0 0 0 0 0 0 0 0 0 0 0 0 0 0 0 0 0 0 0 0 0 0 0 0 0 0 0 0 0 0 0 0 0 0 0 0 0 0 0 292 292 292 292 292 292 292 291 291 291 291 291 291 291 291 291 291 0 0 0 0 0 0 0 0 0 0 0 0 0 0 0 0 0 0 294 293 293 293 292 292 0 0 0 0 289 289 289 289 290 290 290 290 291 291 291 291 291 291 291 291 291 291 291 291 291 292 292 292 292 292 292 292 291 291 291 290 290 290 290 289 289 290 290 290 290 291 291 291 291 291 292 292 292 292 292 292 292 292 292 292 292 292 292 293 293 294 295 295 295 295 294 294 293 292 292 291 291 290 290 290 290 290 290 291 291 291 291 291 291 291 291 291 291 290 290 290 290 289 289 289 289 289 289 289 289 0 0 0 0 0 0 292 292 292 292 292 292 293 293 293 293 293 293 293 294 294 294 293 293 293 293 293 293 0 0 0 0 0 0 0 0 0 0 0 291 0 0 290 0 0 0 0 0 0 0 0 0 0 0 287 286 285 285 284 284 284 284 284 284 284 284 284 284 284 284 284 284 284 283 283 283 283 282 282 282 281 281 281 281 281 0 0 0 0 0 0 0 0 0 0 0 0 0 0 0 0 0 0 0 0 0 0 0 0 0 0 0 0 0 0 0 0 0 0 0 0 0 0 0 0 0 0 0 0 0 0 0 0 0 0 0 0 0 0 0 0 0 0 0 0 0 0 0 0 0 0 0 0 0 0 0 0 0 0 0 0 0 0 0 0 0 0 0 0 0 0 0 0 0 280 280 280 280 280 280 280 280 280 280 280 280 279 279 279 279 279 279 279 279 279 279 279 279 279 279 279 279 279 279 279 279 279 279 278 278 278 278 278 278 278 278 278 278 278 278 278 278 278 278 278 278 278 278 278 278 278 278 278 279 278 278 278 279 278 278 278 278 278 278 278 278 278 278 278 278 278 278 278 278 278 278 278 278 278 278 278 278 278 278 278 278 278 278 278 278 278 278 278 279 278 279
    0 0 0 0 0 0 0 0 0 0 0 0 0 0 0 0 0 0 0 0 0 0 0 0 0 0 0 0 0 0 0 0 0 0 0 0 0 0 0 0 0 0 0 0 0 0 0 0 0 0 0 0 0 0 0 0 0 0 0 0 0 0 0 0 0 0 0 0 0 0 0 0 0 0 0 0 0 0 0 0 0 0 0 0 0 0 0 0 0 0 0 0 0 0 0 0 0 0 0 0 0 0 0 0 0 0 0 0 0 0 1225 1225 1225 1227 1227 1227 1232 1237 1242 1249 1257 1267 1278 1289 1300 1308 1319 1322 1328 1333 1333 1333 1330 1330 1330 1328 1325 1325 1313 1305 0 0 0 0 0 0 0 0 0 0 0 0 1249 1257 1262 1267 1267 1273 1275 1278 1281 1286 1286 1289 1289 0 0 0 0 0 0 0 0 0 0 0 0 0 0 0 0 0 0 0 0 0 0 0 0 0 0 0 0 0 0 0 0 0 0 0 0 0 0 0 0 0 0 0 0 0 0 0 0 0 0 0 0 292 292 292 292 292 292 291 291 291 291 291 291 291 291 291 291 290 291 0 0 0 0 0 0 0 0 0 0 0 0 0 0 0 0 0 0 293 0 0 292 292 291 0 0 289 288 288 288 289 289 289 289 290 290 290 290 290 290 290 290 290 290 291 291 291 291 291 291 291 291 291 291 291 291 291 290 290 290 289 289 289 289 289 289 289 289 290 290 290 291 291 291 292 292 292 292 292 292 291 291 291 291 291 292 292 292 293 293 294 294 294 294 294 293 293 292 292 291 291 291 290 290 290 291 291 291 291 291 291 291 290 290 290 290 290 290 289 289 289 289 288 288 288 288 288 288 288 288 0 0 0 0 0 292 292 292 292 292 292 292 293 293 293 293 293 293 293 293 293 293 293 293 293 293 293 293 0 0 0 0 0 0 0 0 0 0 291 0 0 289 289 0 0 0 0 0 0 0 0 0 286 285 285 284 283 283 283 283 283 283 284 284 284 284 284 284 284 284 283 283 283 283 283 282 282 282 281 281 281 281 281 281 281 0 0 0 0 0 0 0 0 0 0 0 0 0 0 0 0 0 0 0 0 0 0 0 0 0 0 0 0 0 0 0 0 0 0 0 0 0 0 0 0 0 0 0 0 0 0 0 0 0 0 0 0 0 0 0 0 0 0 0 0 0 0 0 0 0 0 0 0 0 0 0 0 0 0 0 0 0 0 0 0 0 0 0 0 0 0 0 280 280 280 280 280 280 280 280 280 280 279 279 279 279 279 279 279 279 278 278 278 278 278 278 278 278 278 278 278 278 278 278 278 278 278 278 278 278 278 278 278 278 278 278 278 278 278 278 278 278 278 278 278 278 278 278 278 278 278 278 278 278 278 278 278 278 278 278 278 279 278 278 278 278 278 278 278 278 278 278 278 277 278 278 277 277 278 278 278 278 278 278 278 278 278 278 278 278 278 278 278 278 278
    0 0 0 0 0 0 0 0 0 0 0 0 0 0 0 0 0 0 0 0 0 0 0 0 0 0 0 0 0 0 0 0 0 0 0 0 0 0 0 0 0 0 0 0 0 0 0 0 0 0 0 0 0 0 0 0 0 0 0 0 0 0 0 0 0 0 0 0 0 0 0 0 0 0 0 0 0 0 0 0 0 0 0 0 0 0 0 0 0 0 0 0 0 0 0 0 0 0 0 0 0 0 0 0 0 0 0 0 0 0 0 1222 1222 1225 1222 1225 1230 1232 1237 1247 1255 1265 1275 1286 1302 1313 1325 1333 1336 1345 1345 1345 1345 1345 1342 1339 1336 1333 1325 1313 0 0 0 0 0 0 0 0 0 0 0 0 1249 1257 1262 1265 1267 1270 1273 1275 1278 1281 1286 1286 1286 1289 0 0 0 0 0 0 0 0 0 0 0 0 0 0 0 0 0 0 0 0 0 0 0 0 0 0 0 0 0 0 0 0 0 0 0 0 0 0 0 0 0 0 0 0 0 0 0 0 0 0 0 0 291 291 291 291 291 291 291 291 290 290 290 290 290 290 290 290 290 0 0 0 0 0 0 0 0 0 0 0 0 0 0 0 0 0 0 0 0 0 292 291 290 0 0 288 288 288 288 288 289 289 289 289 290 290 290 290 290 290 290 290 290 290 290 290 290 290 291 291 291 290 290 290 290 290 290 289 289 289 289 289 289 289 289 289 289 289 290 290 290 291 291 291 292 292 292 292 291 291 291 291 291 291 291 291 291 292 292 293 293 293 293 293 293 293 292 292 291 291 291 290 290 291 291 291 290 291 291 291 290 290 290 290 290 289 289 289 289 288 288 287 287 287 287 287 287 287 287 288 0 0 0 291 291 292 292 292 292 292 292 293 293 293 293 293 293 293 293 293 293 293 293 293 293 293 293 292 292 0 0 292 0 292 292 292 291 291 290 289 288 287 287 287 0 0 0 0 0 0 0 0 0 0 0 0 282 282 282 282 282 283 283 283 283 283 283 283 283 283 283 283 282 282 282 282 282 282 281 281 281 281 281 281 281 0 0 0 0 0 0 0 0 0 0 0 0 0 0 0 0 0 0 0 0 0 0 0 0 0 0 0 0 0 0 0 0 0 0 0 0 0 0 0 0 0 0 0 0 0 0 0 0 0 0 0 0 0 0 0 0 0 0 0 0 0 0 0 0 0 0 0 0 0 0 0 0 0 0 0 0 0 0 0 0 0 0 0 0 279 279 279 280 280 280 279 280 280 279 279 279 279 279 279 279 279 278 278 278 278 278 278 278 278 278 278 278 278 278 278 278 278 278 278 278 278 278 278 278 278 278 278 278 278 278 278 278 278 278 278 278 278 278 278 278 278 278 278 278 278 278 278 278 278 278 278 278 278 278 278 278 278 278 278 278 278 278 278 278 277 277 277 277 277 277 277 277 277 277 277 278 278 278 278 278 278 278 278 278 278 278 278 278 278
    0 0 0 0 0 0 0 0 0 0 0 0 0 0 0 0 0 0 0 0 0 0 0 0 0 0 0 0 0 0 0 0 0 0 0 0 0 0 0 0 0 0 0 0 0 0 0 0 0 0 0 0 0 0 0 0 0 0 0 0 0 0 0 0 0 0 0 0 0 0 0 0 0 0 0 0 0 0 0 0 0 0 0 0 0 0 0 0 0 0 0 0 0 0 0 0 0 0 0 0 0 0 0 0 0 0 0 0 0 0 1217 1220 1222 1222 1222 1222 1225 1232 1234 1244 1255 1265 1275 1289 1305 1313 1325 1333 1339 1345 1348 1351 1348 1348 1348 1342 1339 1339 1330 1328 1319 0 0 0 0 0 0 0 0 0 0 1247 1252 1257 1262 1265 1265 1270 1273 1275 1278 1281 1283 1281 1286 0 0 0 0 0 0 0 0 0 0 0 0 0 0 0 0 0 0 0 0 0 0 0 0 0 0 0 0 0 0 0 0 0 0 0 0 0 0 0 0 0 0 0 0 0 0 0 0 0 0 0 0 291 291 291 291 291 291 290 290 290 290 290 290 290 290 289 290 290 290 0 0 0 0 0 0 0 0 0 0 0 0 0 0 0 0 0 0 0 0 0 291 291 289 0 0 288 288 287 288 288 288 289 289 289 289 289 290 290 290 289 290 290 290 290 290 290 290 290 290 290 290 290 290 290 290 289 289 289 289 288 288 288 288 288 288 288 289 289 289 290 290 290 291 291 291 292 292 292 291 291 290 290 290 290 290 0 290 291 292 292 292 293 0 0 292 292 292 0 291 291 290 290 290 290 290 290 290 290 290 290 290 290 289 289 289 289 288 288 288 287 287 287 287 287 286 287 287 287 287 287 288 0 0 290 290 291 291 292 292 292 292 292 292 293 293 293 293 293 293 293 293 293 293 293 293 292 292 292 292 292 292 292 292 292 292 292 291 290 290 288 287 286 285 285 0 0 0 0 0 0 0 0 0 0 0 282 282 282 282 282 282 282 282 283 283 283 283 282 282 282 282 282 282 282 281 281 281 281 281 281 281 281 281 281 281 281 0 0 0 0 0 0 0 0 0 0 0 0 0 0 0 0 0 0 0 0 0 0 0 0 0 0 0 0 0 0 0 0 0 0 0 0 0 0 0 0 0 0 0 0 0 0 0 0 0 0 0 0 0 0 0 0 0 0 0 0 0 0 0 0 0 0 0 0 0 0 0 0 0 0 0 0 0 0 0 0 0 0 279 279 279 279 279 279 280 279 280 279 279 279 279 279 279 279 278 278 278 278 278 278 278 278 278 278 278 278 278 278 278 278 278 278 278 278 278 278 278 277 277 277 277 277 277 277 277 277 278 278 278 278 278 278 278 278 278 278 278 278 278 278 278 278 278 278 278 278 278 278 278 278 278 278 278 278 278 278 278 277 277 277 277 277 277 277 277 277 277 277 277 277 277 277 277 278 278 278 278 278 278 278 278 278 278 278
    0 0 0 0 0 0 0 0 0 0 0 0 0 0 0 0 0 0 0 0 0 0 0 0 0 0 0 0 0 0 0 0 0 0 0 0 0 0 0 0 0 0 0 0 0 0 0 0 0 0 0 0 0 0 0 0 0 0 0 0 0 0 0 0 0 0 0 0 0 0 0 0 0 0 0 0 0 0 0 0 0 0 0 0 0 0 0 0 0 0 0 0 0 0 0 0 0 0 0 0 0 0 0 0 0 0 0 0 0 0 1215 1215 1217 1217 1217 1217 1222 1222 1230 1239 1249 1262 1275 1289 1305 1316 1328 1333 1339 1345 1348 1351 1354 1354 1351 1348 1345 1342 1336 1330 1322 1311 1302 1294 1283 1273 0 0 0 0 1249 1249 1255 1257 1262 1265 1265 1267 1270 1273 1275 1278 1281 1281 0 0 0 0 0 0 0 0 0 0 0 0 0 0 0 0 0 0 0 0 0 0 0 0 0 0 0 0 0 0 0 0 0 0 0 0 0 0 0 0 0 0 0 0 0 0 0 0 0 0 0 0 291 291 291 291 290 290 290 290 290 290 289 289 289 289 289 289 289 289 289 0 0 0 0 0 0 0 0 0 0 0 0 0 0 0 0 0 0 0 0 0 290 290 289 0 0 287 287 287 287 287 288 288 288 289 289 289 289 289 289 289 289 289 289 289 289 289 289 289 289 289 289 289 289 289 289 289 289 288 288 288 288 288 288 288 288 288 288 289 289 289 290 290 290 291 291 291 291 291 291 290 290 290 290 290 290 290 290 290 291 0 292 292 0 292 292 292 292 292 292 291 291 291 291 291 291 291 291 290 290 290 290 289 289 289 288 288 288 288 287 287 287 286 286 286 286 286 286 286 287 287 288 288 289 289 290 291 291 291 292 292 292 292 293 293 293 293 293 293 293 293 293 293 292 293 293 293 293 292 293 292 293 292 292 292 292 292 291 291 0 0 287 0 284 284 283 0 0 0 0 0 0 0 0 0 0 281 281 281 281 282 282 282 282 282 282 282 282 282 282 282 282 282 282 281 281 281 281 281 281 281 282 281 281 281 281 281 0 0 0 0 0 0 0 0 0 0 0 0 0 0 0 0 0 0 0 0 0 0 0 0 0 0 0 0 0 0 0 0 0 0 0 0 0 0 0 0 0 0 0 0 0 0 0 0 0 0 0 0 0 0 0 0 0 0 0 0 0 0 0 0 0 0 0 0 0 0 0 0 0 0 0 0 0 0 0 0 0 0 279 279 279 279 279 280 280 279 279 279 279 279 279 279 279 278 278 278 278 278 278 278 278 278 278 278 278 278 277 277 277 277 277 277 277 277 277 277 277 277 277 277 277 277 277 277 277 277 277 277 277 278 278 278 278 278 278 278 278 278 278 278 278 278 278 278 278 278 278 278 278 278 278 278 278 278 278 278 278 277 277 277 277 277 277 277 277 277 277 277 277 277 277 277 277 277 278 278 278 278 278 278 278 278 278 278
    0 0 0 0 0 0 0 0 0 0 0 0 0 0 0 0 0 0 0 0 0 0 0 0 0 0 0 0 0 0 0 0 0 0 0 0 0 0 0 0 0 0 0 0 0 0 0 0 0 0 0 0 0 0 0 0 0 0 0 0 0 0 0 0 0 0 0 0 0 0 0 0 0 0 0 0 0 0 0 0 0 0 0 0 0 0 0 0 0 0 0 0 0 0 0 0 0 0 0 0 0 0 0 0 0 0 0 0 0 0 1217 1217 1220 1217 1220 1220 1222 1227 1232 1239 1252 1265 1278 1291 1305 1316 1328 1336 1342 1348 1348 1351 1354 1354 1354 1348 1348 1345 1339 1333 1328 1322 1316 1311 1308 1300 1289 1278 1270 1265 1262 1260 1260 1260 1262 1265 1267 1267 1270 1273 1273 1275 1275 1278 1278 0 0 0 0 0 0 0 0 0 0 0 0 0 0 0 0 0 0 0 0 0 0 0 0 0 0 0 0 0 0 0 0 0 0 0 0 0 0 0 0 0 0 0 0 0 0 0 0 0 0 0 291 290 290 290 290 290 290 289 289 289 289 289 289 289 289 289 289 289 289 0 0 0 0 0 0 0 0 0 0 0 0 0 0 0 0 0 0 0 0 0 289 289 288 288 288 287 287 287 287 287 288 288 288 288 289 289 289 289 289 289 289 289 289 289 289 289 289 289 289 289 289 289 289 288 288 288 288 288 288 287 287 287 287 287 287 288 288 288 289 289 289 290 290 290 291 291 291 291 290 290 290 289 289 289 289 289 289 289 290 290 291 291 291 0 292 0 292 292 292 292 292 292 292 292 292 292 291 291 290 290 290 289 288 288 288 287 287 287 287 286 286 286 286 286 286 286 286 286 286 287 288 288 289 289 290 291 291 292 292 292 292 292 293 293 293 293 293 293 293 293 292 293 293 293 293 293 292 292 293 293 292 292 292 292 292 292 291 291 0 0 287 0 284 283 283 283 282 281 281 281 0 281 281 281 281 281 281 281 281 282 282 282 282 282 282 282 282 282 282 281 282 281 281 281 281 281 281 281 281 281 281 281 281 281 282 281 0 0 0 0 0 0 0 0 0 0 0 0 0 0 0 0 0 0 0 0 0 0 0 0 0 0 0 0 0 0 0 0 0 0 0 0 0 0 0 0 0 0 0 0 0 0 0 0 0 0 0 0 0 0 0 0 0 0 0 0 0 0 0 0 0 0 0 0 0 0 0 0 0 0 0 0 0 0 0 279 279 279 279 279 279 279 279 279 279 279 279 279 279 279 279 279 278 278 278 278 278 278 278 277 277 277 277 277 277 277 277 277 277 277 277 277 277 277 277 277 277 277 277 277 277 277 277 277 277 277 277 277 277 277 278 278 278 278 278 278 278 278 278 278 278 278 278 278 278 278 278 278 278 278 278 278 278 278 278 278 277 277 277 277 277 277 277 277 277 277 277 277 277 277 277 277 277 277 277 277 278 278 278 278 278 278 278 278
    0 0 0 0 0 0 0 0 0 0 0 0 0 0 0 0 0 0 0 0 0 0 0 0 0 0 0 0 0 0 0 0 0 0 0 0 0 0 0 0 0 0 0 0 0 0 0 0 0 0 0 0 0 0 0 0 0 0 0 0 0 0 0 0 0 0 0 0 0 0 0 0 0 0 0 0 0 0 0 0 0 0 0 0 0 0 0 0 0 0 0 0 0 0 0 0 0 0 0 0 0 0 0 0 0 0 0 0 0 0 1230 1230 1230 1227 1225 1227 1227 1230 1234 1242 1252 1265 1278 1294 1311 1322 1333 1342 1348 1354 1357 1360 1360 1360 1357 1354 1351 1345 1342 1333 1328 1325 1316 1313 1308 1300 1289 1281 1273 1270 1265 1262 1262 1262 1265 1267 1267 1267 1270 1270 1270 1273 1275 1275 0 0 0 0 0 0 0 0 0 0 0 0 0 0 0 0 0 0 0 0 0 0 0 0 0 0 0 0 0 0 0 0 0 0 0 0 0 0 0 0 0 0 0 0 0 0 0 0 0 0 0 290 290 290 290 290 290 289 289 289 289 289 289 289 288 288 288 289 288 288 288 0 0 0 0 0 0 0 0 0 0 0 0 0 0 0 0 0 0 0 0 0 289 289 288 288 287 287 287 287 287 287 287 288 288 288 288 289 289 289 289 289 289 289 289 289 289 289 289 289 288 288 288 288 288 288 288 288 288 288 287 287 287 287 287 287 287 287 287 288 288 289 289 289 290 290 291 291 291 290 290 289 289 289 289 289 288 288 288 288 288 289 289 290 290 291 291 292 292 292 292 292 292 292 292 292 292 291 291 291 290 290 289 289 288 287 287 287 287 286 286 286 286 285 286 286 286 286 286 286 286 287 287 288 0 0 290 291 291 292 292 292 292 292 293 293 292 293 292 292 292 293 293 293 293 293 293 293 292 292 293 293 293 292 292 292 292 292 291 291 0 0 0 0 283 283 282 282 282 281 0 281 280 280 280 280 280 281 281 281 281 281 281 282 282 282 282 282 282 282 281 281 281 281 281 281 281 281 281 281 281 281 281 281 281 281 281 281 281 0 0 0 0 0 0 0 0 0 0 0 0 0 0 0 0 0 0 0 0 0 0 0 0 0 0 0 0 0 0 0 0 0 0 0 0 0 0 0 0 0 0 0 0 0 0 0 0 0 0 0 0 0 0 0 0 0 0 0 0 0 0 0 0 0 0 0 0 0 0 0 0 0 0 0 0 0 278 278 278 279 279 279 279 279 279 279 279 279 279 279 279 279 279 278 278 278 278 278 277 277 277 277 277 277 277 277 277 277 277 277 277 277 277 277 277 277 277 276 276 276 276 276 276 276 276 276 276 277 277 277 277 277 278 278 278 278 278 278 278 278 278 278 278 278 278 278 278 278 278 278 278 278 278 278 278 278 278 278 277 277 277 277 277 277 277 276 276 277 277 277 277 277 277 277 277 277 277 277 277 277 277 278 278 278 277 278
    0 0 0 0 0 0 0 0 0 0 0 0 0 0 0 0 0 0 0 0 0 0 0 0 0 0 0 0 0 0 0 0 0 0 0 0 0 0 0 0 0 0 0 0 0 0 0 0 0 0 0 0 0 0 0 0 0 0 0 0 0 0 0 0 0 0 0 0 0 0 0 0 0 0 0 0 0 0 0 0 0 0 0 0 0 0 0 0 0 0 0 0 0 0 0 0 0 0 0 0 0 0 0 0 0 0 0 0 0 0 1242 1242 1239 1237 1237 1234 1234 1237 1242 1249 1257 1267 1278 1294 1311 1325 1336 1342 1351 1357 1360 1363 1363 1363 1360 1357 1351 1348 1342 1333 1328 1322 1316 1313 1308 1302 1291 1283 1275 1270 1267 1265 1265 1265 1265 1267 1270 1270 1267 1267 1270 1267 1267 1270 0 0 0 0 0 0 0 0 0 0 0 0 0 0 0 0 0 0 0 0 0 0 0 0 0 0 0 0 0 0 0 0 0 0 0 0 0 0 0 0 0 0 0 0 0 0 0 0 0 0 0 290 290 290 290 290 289 289 289 289 289 288 288 288 288 288 288 288 288 288 288 288 288 0 0 0 0 0 0 0 0 0 0 0 0 0 0 0 0 0 0 0 288 288 287 0 0 287 287 287 287 287 287 287 287 288 288 288 288 288 288 288 288 288 288 288 288 288 288 288 288 288 288 288 288 288 288 288 287 287 287 287 287 287 287 287 287 287 287 287 288 288 289 289 289 290 290 290 290 290 290 289 289 288 288 288 287 287 287 287 287 287 288 288 289 289 290 290 291 292 292 292 292 292 292 292 292 292 291 291 290 289 289 288 287 286 286 286 286 285 285 285 285 285 285 285 285 285 286 286 286 287 287 0 0 289 289 290 0 0 0 292 0 0 0 0 0 0 292 292 292 292 293 293 293 293 293 293 293 293 293 293 293 293 292 292 292 292 291 290 0 0 0 0 283 282 282 282 281 281 0 0 280 280 280 280 280 280 281 281 281 281 281 281 282 282 282 282 282 281 281 281 281 281 281 281 281 281 281 281 281 281 281 281 281 281 281 281 281 0 0 0 0 0 0 0 0 0 0 0 0 0 0 0 0 0 0 0 0 0 0 0 0 0 0 0 0 0 0 0 0 0 0 0 0 0 0 0 0 0 0 0 0 0 0 0 0 0 0 0 0 0 0 0 0 0 0 0 0 0 0 0 0 0 0 0 0 0 0 0 0 0 0 0 0 0 278 278 278 278 278 278 279 279 279 279 279 279 279 279 279 278 278 278 278 278 278 277 277 277 277 277 277 277 277 277 277 277 277 277 277 277 276 276 276 276 276 276 276 276 276 276 276 276 276 276 276 276 277 277 277 277 278 278 278 278 278 278 278 278 278 278 278 278 278 278 278 278 278 278 278 278 278 278 278 278 278 277 277 277 277 277 276 276 276 276 276 276 276 277 277 277 277 277 277 277 277 277 277 277 277 277 277 277 277 278
    0 0 0 0 0 0 0 0 0 0 0 0 0 0 0 0 0 0 0 0 0 0 0 0 0 0 0 0 0 0 0 0 0 0 0 0 0 0 0 0 0 0 0 0 0 0 0 0 0 0 0 0 0 0 0 0 0 0 0 0 0 0 0 0 0 0 0 0 0 0 0 0 0 0 0 0 0 0 0 0 0 0 0 0 0 0 0 0 0 0 0 0 0 0 0 0 0 0 0 0 0 0 0 0 0 0 0 0 0 0 0 1257 0 0 1249 1249 1247 1247 1249 1257 1262 1273 1283 1297 1313 1325 1336 1345 1351 1360 1360 1366 1366 1363 1363 1357 1354 1351 1342 1336 1330 1325 1316 1311 1311 1302 1291 1283 1278 1275 1273 1270 1270 1270 1270 1273 1273 1270 1270 1267 1265 1265 1265 1265 0 0 0 0 0 0 0 0 0 0 0 0 0 0 0 0 0 0 0 0 0 0 0 0 0 0 0 0 0 0 0 0 0 0 0 0 0 0 0 0 0 0 0 0 0 0 0 0 0 0 0 0 290 290 289 289 289 289 289 289 288 288 288 288 288 288 288 288 288 288 288 288 288 288 288 0 0 0 0 0 0 0 0 0 0 0 0 0 0 0 0 0 288 288 287 0 287 287 286 286 287 287 287 287 287 287 288 288 288 288 288 288 288 288 288 288 288 288 288 288 288 288 288 288 288 287 287 287 287 287 287 287 286 286 286 286 287 287 287 287 287 288 288 288 289 289 289 290 290 290 289 289 288 288 287 287 287 287 286 286 286 286 287 287 288 0 289 0 0 292 292 292 292 293 292 292 292 292 291 290 289 289 288 287 0 285 285 285 285 285 285 284 284 284 285 285 285 285 285 286 286 286 0 0 287 0 0 0 0 0 0 0 0 0 0 0 0 0 0 292 292 293 0 293 293 293 293 293 293 293 293 293 293 293 292 292 292 292 291 291 0 0 0 283 282 282 282 281 281 281 281 0 280 280 280 280 280 281 281 281 281 281 281 281 281 282 0 0 0 0 281 281 281 280 280 280 280 280 281 281 281 281 281 281 281 281 281 281 281 0 0 0 0 0 0 0 0 0 0 0 0 0 0 0 0 0 0 0 0 0 0 0 0 0 0 0 0 0 0 0 0 0 0 0 0 0 0 0 0 0 0 0 0 0 0 0 0 0 0 0 0 0 0 0 0 0 0 0 0 0 0 0 0 0 0 0 0 0 0 0 0 0 0 0 0 0 277 277 278 278 278 278 278 278 278 279 279 279 279 279 278 278 278 278 278 277 277 277 277 277 277 277 277 277 277 277 277 277 277 277 276 276 276 276 276 276 276 276 276 276 276 275 276 275 276 276 276 276 276 277 277 277 277 278 278 278 278 278 278 278 278 278 278 278 278 278 278 278 278 278 278 278 278 278 278 278 278 277 277 277 277 276 276 276 276 276 276 276 276 276 277 277 277 277 277 277 277 277 277 277 277 277 277 277 277 277
    0 0 0 0 0 0 0 0 0 0 0 0 0 0 0 0 0 0 0 0 0 0 0 0 0 0 0 0 0 0 0 0 0 0 0 0 0 0 0 0 0 0 0 0 0 0 0 0 0 0 0 0 0 0 0 0 0 0 0 0 0 0 0 0 0 0 0 0 0 0 0 0 0 0 0 0 0 0 0 0 0 0 0 0 0 0 0 0 0 0 0 0 0 0 0 0 0 0 0 0 0 0 0 0 0 0 0 0 0 0 1265 1265 1262 1260 1260 1257 1252 1252 1255 1262 1267 1278 1289 1305 1322 1328 1339 1348 1351 1360 1366 1366 1363 1363 1360 1357 1354 1348 1342 1336 1328 1325 1316 1311 1308 1302 1294 1286 1283 1281 1278 1275 1275 1273 1273 1275 1273 1270 1267 1262 1262 1260 1257 0 0 0 0 0 0 0 0 0 0 0 0 0 0 0 0 0 0 0 0 0 0 0 0 0 0 0 0 0 0 0 0 0 0 0 0 0 0 0 0 0 0 0 0 0 0 0 0 0 0 0 0 290 289 289 289 289 289 289 288 288 288 288 288 287 287 287 287 287 287 287 287 288 288 288 288 288 0 0 0 0 0 0 0 0 0 0 0 0 0 0 0 0 287 287 287 0 286 286 286 286 286 286 286 287 287 287 287 287 288 288 288 288 288 288 288 288 288 288 288 288 288 288 287 287 287 287 287 287 287 287 286 286 286 286 286 286 286 286 286 287 287 287 287 288 288 289 289 289 289 289 289 288 288 287 287 286 286 286 286 286 285 285 286 286 287 0 0 0 0 291 0 292 293 0 293 293 292 292 291 290 0 0 0 0 285 285 284 284 284 284 284 284 284 284 284 285 285 285 285 285 286 286 0 286 287 0 0 0 0 0 0 0 0 0 0 0 0 0 0 0 0 0 0 0 293 293 293 293 293 293 293 293 293 293 293 292 292 292 291 290 0 0 0 283 282 281 281 281 281 281 280 280 280 280 280 280 280 281 281 281 281 281 281 281 281 281 281 0 0 0 0 280 280 280 280 280 280 280 280 280 281 281 281 281 281 281 281 281 281 0 0 0 0 0 0 0 0 0 0 0 0 0 0 0 0 0 0 0 0 0 0 0 0 0 0 0 0 0 0 0 0 0 0 0 0 0 0 0 0 0 0 0 0 0 0 0 0 0 0 0 0 0 0 0 0 0 0 0 0 0 0 0 0 0 0 0 0 0 0 0 0 0 0 0 0 277 277 277 277 278 278 278 278 278 278 278 278 278 278 278 278 278 278 278 277 277 277 277 277 277 277 277 277 276 276 277 276 276 276 276 276 276 276 276 276 276 276 275 275 275 275 275 275 275 275 276 276 276 276 277 277 277 277 278 278 278 278 278 278 278 278 278 278 278 277 277 277 277 277 278 277 277 278 278 277 277 277 277 277 277 276 276 276 276 276 276 276 276 276 276 277 277 277 277 277 277 277 277 277 277 277 277 277 277 277 277
    0 0 0 0 0 0 0 0 0 0 0 0 0 0 0 0 0 0 0 0 0 0 0 0 0 0 0 0 0 0 0 0 0 0 0 0 0 0 0 0 0 0 0 0 0 0 0 0 0 0 0 0 0 0 0 0 0 0 0 0 0 0 0 0 0 0 0 0 0 0 0 0 0 0 0 0 0 0 0 0 0 0 0 0 0 0 0 0 0 0 0 0 0 0 0 0 0 0 0 0 0 0 0 0 0 0 0 0 0 0 1275 1273 1270 1270 1265 1262 0 0 1260 1265 1273 1281 1297 1311 1325 1333 1345 1348 1354 1363 1366 1366 1363 1363 1363 1357 1354 1348 1342 1333 1328 1322 1316 1311 1305 1300 1291 1286 1283 1283 1281 1281 1278 1278 1275 1275 1273 1270 1265 1260 1257 1255 1255 0 0 0 0 0 0 0 0 0 0 0 0 0 0 0 0 0 0 0 0 0 0 0 0 0 0 0 0 0 0 0 0 0 0 0 0 0 0 0 0 0 0 0 0 0 0 0 0 0 0 0 0 289 289 289 289 289 289 288 288 288 288 287 287 287 287 287 287 287 287 287 287 287 287 288 288 288 288 289 289 289 289 289 0 0 0 0 0 0 0 0 0 287 287 287 286 286 286 286 286 286 286 286 286 286 287 287 287 287 287 287 287 287 287 287 288 287 287 287 287 287 287 287 287 287 287 287 287 287 287 287 286 286 286 286 286 286 286 286 286 286 287 287 287 287 288 288 288 288 288 288 288 288 287 287 286 286 286 285 285 285 285 285 285 285 286 0 0 0 0 0 0 0 0 0 0 0 0 0 0 0 0 0 0 285 284 284 284 284 284 283 284 283 283 284 0 0 0 285 285 285 285 0 0 0 0 0 0 0 0 0 0 0 0 0 0 0 0 0 0 0 0 0 0 0 293 293 293 293 293 293 293 293 293 293 293 292 292 292 291 0 0 286 284 282 281 281 281 281 281 281 281 280 280 280 280 280 281 281 281 281 281 281 281 281 281 281 282 0 0 0 0 0 280 280 280 280 279 280 280 280 280 281 281 281 281 281 281 281 281 281 0 0 0 0 0 0 0 0 0 0 0 0 0 0 0 0 0 0 0 0 0 0 0 0 0 0 0 0 0 0 0 0 0 0 0 0 0 0 0 0 0 0 0 0 0 0 0 0 0 0 0 0 0 0 0 0 0 0 0 0 0 0 0 0 0 0 0 0 0 0 0 0 0 0 0 276 276 277 277 277 277 277 277 277 278 278 278 278 278 278 278 278 277 277 277 277 277 277 277 277 276 276 276 276 276 276 276 276 276 276 276 276 276 276 276 276 275 275 275 275 275 275 275 275 275 275 276 276 276 277 277 277 277 278 278 278 278 278 278 278 278 278 278 278 277 277 277 277 277 277 277 277 277 277 277 277 277 277 277 276 276 276 276 276 276 276 276 276 276 276 277 277 277 277 277 277 277 277 277 277 277 277 277 277 277 277
    0 0 0 0 0 0 0 0 0 0 0 0 0 0 0 0 0 0 0 0 0 0 0 0 0 0 0 0 0 0 0 0 0 0 0 0 0 0 0 0 0 0 0 0 0 0 0 0 0 0 0 0 0 0 0 0 0 0 0 0 0 0 0 0 0 0 0 0 0 0 0 0 0 0 0 0 0 0 0 0 0 0 0 0 0 0 0 0 0 0 0 0 0 0 0 0 0 0 0 0 0 0 0 0 0 0 0 0 0 0 1281 1278 1278 1273 1270 1267 1265 0 0 1273 1278 1291 1302 1313 1328 1339 1348 1354 1357 1360 1363 1366 1363 1363 1360 1357 1354 1348 1339 1333 1325 1319 1313 1308 1302 1297 1289 1286 1283 1283 1283 1281 1281 1278 1278 1275 1273 1267 1262 1257 1255 1249 1249 1247 0 0 0 0 0 0 0 0 0 0 0 0 0 0 0 0 0 0 0 0 0 0 0 0 0 0 0 0 0 0 0 0 0 0 0 0 0 0 0 0 0 0 0 0 0 0 0 0 0 0 0 0 289 289 289 289 288 288 288 287 287 287 287 287 287 287 287 287 287 287 287 287 287 287 288 288 288 288 288 289 289 289 289 0 0 0 0 0 0 0 0 287 286 286 286 0 0 286 285 286 286 286 286 286 286 286 287 287 287 287 287 287 287 287 287 287 287 287 287 287 287 287 287 287 286 286 286 286 286 286 286 286 286 286 285 286 286 286 286 286 286 287 287 287 287 287 288 288 288 288 287 287 287 286 286 285 285 285 285 285 284 284 285 285 285 285 0 0 0 0 0 0 0 0 0 0 0 0 0 0 0 286 0 284 283 283 283 0 283 283 283 0 283 283 0 0 0 284 285 285 285 285 285 285 0 0 0 0 0 0 0 0 0 0 0 0 0 0 0 0 0 0 0 0 0 293 294 293 293 293 293 293 293 293 293 292 292 292 290 289 287 285 283 282 281 281 281 281 281 280 280 280 280 280 280 281 281 281 281 281 281 281 281 281 281 281 0 0 0 0 0 0 279 279 279 279 279 279 279 280 280 280 280 281 281 281 281 281 280 280 0 0 0 0 0 0 0 0 0 0 0 0 0 0 0 0 0 0 0 0 0 0 0 0 0 0 0 0 0 0 0 0 0 0 0 0 0 0 0 0 0 0 0 0 0 0 0 0 0 0 0 0 0 0 0 0 0 0 0 0 0 0 0 0 0 0 0 0 0 0 0 0 0 0 0 276 276 276 276 276 277 277 277 277 277 277 277 277 277 277 277 277 277 277 277 277 277 276 276 276 276 276 276 276 276 276 276 276 276 276 276 276 276 276 276 276 276 275 275 275 275 275 275 275 275 275 276 276 276 277 277 277 278 278 278 278 278 278 278 278 278 278 278 278 277 277 277 277 277 277 277 277 277 277 277 277 277 277 277 276 276 276 276 276 276 276 276 276 276 276 277 277 277 277 277 277 277 277 277 277 277 277 277 277 277 277
    0 0 0 0 0 0 0 0 0 0 0 0 0 0 0 0 0 0 0 0 0 0 0 0 0 0 0 0 0 0 0 0 0 0 0 0 0 0 0 0 0 0 0 0 0 0 0 0 0 0 0 0 0 0 0 0 0 0 0 0 0 0 0 0 0 0 0 0 0 0 0 0 0 0 0 0 0 0 0 0 0 0 0 0 0 0 0 0 0 0 0 0 0 0 0 0 0 0 0 0 0 0 0 0 0 0 0 0 0 0 1286 1283 1283 1283 1278 1278 1273 1273 0 0 1291 1302 1313 1325 1336 1345 1351 1354 1357 1360 1363 1363 1363 1360 1357 1354 1351 1345 1336 1330 1322 1313 1308 1305 1297 1291 1283 1281 1278 1281 1281 1278 1278 1275 1275 1275 1270 1265 1260 1255 1249 1247 1242 1242 0 0 0 0 0 0 0 0 0 0 0 0 0 0 0 0 0 0 0 0 0 0 0 0 0 0 0 0 0 0 0 0 0 0 0 0 0 0 0 0 0 0 0 0 0 0 0 0 0 0 0 0 0 289 289 288 288 287 287 287 287 287 287 286 286 286 286 286 287 287 287 287 287 287 287 287 288 288 288 288 288 288 288 288 0 0 0 0 0 0 0 286 286 286 285 0 0 0 285 285 285 285 286 286 286 286 286 286 286 287 287 287 287 287 287 287 287 287 286 287 287 286 286 286 286 286 286 286 285 285 285 285 285 285 285 285 285 285 285 286 286 286 286 287 287 287 287 287 287 287 287 287 286 286 285 285 285 284 284 284 284 284 284 284 284 285 285 285 0 0 0 0 0 0 0 0 0 0 0 0 0 285 284 283 283 283 282 282 282 282 283 282 282 283 283 283 284 284 284 284 285 285 285 0 0 0 0 0 0 0 0 0 0 0 0 0 0 0 0 0 0 0 0 0 0 294 293 294 294 293 293 293 293 293 293 292 292 292 290 0 0 0 283 282 281 281 281 281 281 280 280 280 280 280 281 281 281 281 281 281 281 281 281 281 281 0 0 0 0 0 0 0 279 279 279 279 279 279 279 279 279 280 280 280 280 280 280 280 280 280 0 0 0 0 0 0 0 0 0 0 0 0 0 0 0 0 0 0 0 0 0 0 0 0 0 0 0 0 0 0 0 0 0 0 0 0 0 0 0 0 0 0 0 0 0 0 0 0 0 0 0 0 0 0 0 0 0 0 0 0 0 0 0 0 0 0 0 0 0 0 0 0 0 275 275 275 275 276 276 276 276 276 276 276 277 277 277 277 277 277 277 277 277 277 277 277 276 276 276 276 276 276 276 276 276 276 276 276 276 276 276 276 276 276 276 276 276 275 275 275 275 275 275 275 275 276 276 276 276 277 277 277 278 278 278 278 278 278 278 278 278 278 278 278 277 277 277 277 277 277 277 277 277 277 277 277 277 277 277 276 276 276 276 276 276 276 276 276 276 276 277 277 277 277 277 277 277 277 277 277 277 277 277 277 277 277
    0 0 0 0 0 0 0 0 0 0 0 0 0 0 0 0 0 0 0 0 0 0 0 0 0 0 0 0 0 0 0 0 0 0 0 0 0 0 0 0 0 0 0 0 0 0 0 0 0 0 0 0 0 0 0 0 0 0 0 0 0 0 0 0 0 0 0 0 0 0 0 0 0 0 0 0 0 0 0 0 0 0 0 0 0 0 0 0 0 0 0 0 0 0 0 0 0 0 0 0 0 0 0 0 0 0 0 0 0 0 1286 1289 1286 1286 1283 1286 1283 1283 1289 1297 1305 1313 1325 1333 1345 1351 1357 1357 1360 1363 1363 1363 1363 1360 1357 1354 1351 1345 1336 1328 1319 1313 1305 1297 1289 1281 1275 1273 1273 1273 1275 1275 1275 1273 1273 1273 1270 1262 1257 1252 1247 1242 1239 1237 1232 1230 0 0 0 0 0 0 0 0 0 0 0 0 0 0 0 0 0 0 0 0 0 0 0 0 0 0 0 0 0 0 0 0 0 0 0 0 0 0 0 0 0 0 0 0 0 0 0 0 0 0 0 0 288 288 288 287 287 287 287 286 286 286 286 286 286 286 286 286 286 287 287 287 287 287 287 287 287 288 288 288 288 288 0 0 0 0 0 0 0 286 286 285 285 0 0 0 285 285 285 285 285 285 286 286 286 286 286 286 286 286 286 286 286 286 286 286 286 286 286 286 286 286 285 285 285 285 285 285 285 285 285 285 285 285 285 285 285 285 286 286 286 286 286 286 287 287 287 287 286 286 285 285 285 285 284 284 284 284 284 283 284 284 284 284 284 284 0 0 0 0 0 0 0 0 0 0 0 0 0 284 283 283 282 282 282 282 282 282 282 282 282 282 283 283 283 283 284 284 284 0 0 0 0 0 0 0 0 0 0 0 0 0 0 0 0 0 0 0 0 0 0 0 0 294 294 294 294 294 293 293 293 293 293 292 292 291 0 0 0 0 282 281 281 281 281 280 280 0 280 0 280 280 280 280 281 281 281 281 281 281 281 281 281 281 0 0 0 0 0 0 278 278 278 278 278 278 278 279 279 279 280 280 280 280 280 280 280 279 0 0 0 0 0 0 0 0 0 0 0 0 0 0 0 0 0 0 0 0 0 0 0 0 0 0 0 0 0 0 0 0 0 0 0 0 0 0 0 0 0 0 0 0 0 0 0 0 0 0 0 0 0 0 0 0 0 0 0 0 0 0 0 0 0 0 0 0 274 274 274 274 274 274 275 275 275 275 275 275 275 275 276 276 276 276 276 276 276 276 276 276 276 276 276 276 276 276 276 276 276 275 275 275 276 275 276 276 276 276 276 276 276 276 276 276 275 275 275 275 275 275 275 275 276 276 276 276 277 277 277 277 278 278 278 278 278 278 278 278 278 278 278 277 277 277 277 277 277 277 277 277 277 277 277 277 277 277 277 276 276 276 276 276 276 276 276 276 276 276 276 277 276 276 276 276 276 276 277 277 277 277 277 277 277 277</data></DepthMatrix>
</opencv_storage>
